# .PCD v0.7 - Point Cloud Data file format
VERSION 0.7
FIELDS x y z
SIZE 4 4 4
TYPE F F F
COUNT 1 1 1
WIDTH 2164
HEIGHT 1
VIEWPOINT 0 0 0 1 0 0 0
POINTS 2164
DATA ascii
1.295 1.745 0.26499999
1.345 1.735 0.255
1.335 1.745 0.255
1.3049999 1.725 0.285
1.3049999 1.725 0.30500001
1.345 1.725 0.285
1.335 1.725 0.30500001
1.375 1.735 0.255
1.415 1.745 0.245
1.365 1.715 0.30500001
1.375 1.725 0.29499999
1.395 1.725 0.29499999
1.405 1.725 0.29499999
1.425 1.725 0.29499999
1.415 1.755 0.315
1.475 1.725 0.16500001
1.465 1.755 0.175
1.505 1.725 0.16500001
1.4450001 1.735 0.22499999
1.4450001 1.735 0.235
1.465 1.725 0.235
1.495 1.735 0.215
1.505 1.725 0.235
1.485 1.745 0.235
1.495 1.755 0.235
1.535 1.725 0.175
1.5549999 1.725 0.175
1.535 1.745 0.16500001
1.585 1.725 0.175
1.545 1.735 0.205
1.525 1.735 0.22499999
1.525 1.725 0.235
1.5549999 1.725 0.235
1.5549999 1.745 0.235
1.5650001 1.745 0.215
1.515 1.715 0.285
1.4450001 1.725 0.29499999
1.455 1.725 0.29499999
1.475 1.725 0.29499999
1.485 1.725 0.29499999
1.505 1.725 0.29499999
1.485 1.755 0.30500001
1.585 1.725 0.245
1.545 1.715 0.285
1.575 1.715 0.285
1.5549999 1.755 0.285
1.535 1.725 0.30500001
1.5549999 1.735 0.315
1.5650001 1.725 0.30500001
1.585 1.725 0.30500001
1.615 1.725 0.115
1.625 1.745 0.13500001
1.605 1.745 0.145
1.645 1.725 0.125
1.675 1.725 0.125
1.6849999 1.745 0.115
1.745 1.735 0.105
1.6950001 1.725 0.125
1.6849999 1.755 0.125
1.725 1.725 0.13500001
1.745 1.725 0.13500001
1.755 1.755 0.125
1.775 1.725 0.13500001
1.795 1.725 0.13500001
1.775 1.735 0.145
1.835 1.735 0.13500001
1.825 1.755 0.125
1.825 1.725 0.145
1.895 1.735 0.115
1.845 1.725 0.145
1.865 1.725 0.145
1.865 1.735 0.155
1.895 1.755 0.125
1.895 1.725 0.145
1.915 1.725 0.155
1.915 1.735 0.155
1.615 1.725 0.185
1.605 1.735 0.185
1.655 1.735 0.175
1.645 1.725 0.185
1.675 1.725 0.185
1.605 1.735 0.205
1.625 1.755 0.235
1.645 1.735 0.205
1.715 1.735 0.16500001
1.6950001 1.725 0.185
1.6950001 1.735 0.19499999
1.745 1.725 0.175
1.735 1.735 0.185
1.725 1.725 0.19499999
1.745 1.725 0.19499999
1.6849999 1.755 0.235
1.755 1.745 0.235
1.615 1.725 0.245
1.615 1.725 0.27500001
1.625 1.755 0.26499999
1.645 1.725 0.245
1.675 1.725 0.245
1.645 1.725 0.27500001
1.675 1.725 0.26499999
1.615 1.725 0.30500001
1.605 1.735 0.30500001
1.615 1.745 0.315
1.665 1.735 0.29499999
1.645 1.725 0.30500001
1.675 1.725 0.30500001
1.655 1.745 0.315
1.735 1.715 0.26499999
1.6950001 1.725 0.245
1.6950001 1.755 0.245
1.6950001 1.725 0.27500001
1.705 1.725 0.26499999
1.725 1.725 0.255
1.745 1.735 0.255
1.6950001 1.725 0.315
1.6950001 1.745 0.30500001
1.725 1.735 0.285
1.755 1.735 0.29499999
1.745 1.745 0.29499999
1.725 1.725 0.315
1.755 1.725 0.315
1.775 1.735 0.175
1.775 1.725 0.19499999
1.795 1.725 0.19499999
1.825 1.745 0.16500001
1.8150001 1.735 0.185
1.775 1.755 0.22499999
1.825 1.725 0.205
1.845 1.725 0.205
1.875 1.725 0.205
1.855 1.755 0.205
1.895 1.725 0.205
1.915 1.725 0.205
1.905 1.735 0.235
1.775 1.715 0.255
1.835 1.715 0.245
1.775 1.725 0.255
1.795 1.725 0.255
1.775 1.735 0.26499999
1.8150001 1.725 0.245
1.8049999 1.725 0.255
1.825 1.725 0.255
1.825 1.755 0.245
1.785 1.745 0.285
1.775 1.725 0.315
1.825 1.745 0.285
1.8049999 1.725 0.315
1.825 1.725 0.315
1.875 1.715 0.245
1.845 1.735 0.255
1.845 1.725 0.26499999
1.875 1.725 0.26499999
1.875 1.735 0.27500001
1.895 1.745 0.245
1.895 1.725 0.26499999
1.915 1.725 0.26499999
1.915 1.745 0.26499999
1.845 1.725 0.315
1.875 1.725 0.315
1.3049999 1.725 0.35499999
1.285 1.755 0.345
1.325 1.755 0.33500001
1.345 1.755 0.33500001
1.345 1.725 0.35499999
1.345 1.735 0.35499999
1.295 1.735 0.36500001
1.3049999 1.745 0.36500001
1.295 1.725 0.39500001
1.345 1.745 0.36500001
1.335 1.725 0.39500001
1.385 1.745 0.33500001
1.375 1.725 0.35499999
1.395 1.735 0.345
1.375 1.745 0.35499999
1.4349999 1.745 0.33500001
1.405 1.735 0.345
1.405 1.725 0.35499999
1.415 1.745 0.345
1.385 1.725 0.36500001
1.365 1.725 0.39500001
1.395 1.725 0.39500001
1.425 1.725 0.39500001
1.3049999 1.725 0.405
1.3150001 1.725 0.42500001
1.345 1.725 0.42500001
1.325 1.755 0.42500001
1.295 1.755 0.45500001
1.3049999 1.745 0.465
1.3049999 1.745 0.47499999
1.345 1.745 0.465
1.355 1.745 0.465
1.375 1.725 0.42500001
1.385 1.755 0.435
1.415 1.725 0.42500001
1.425 1.755 0.435
1.4349999 1.755 0.435
1.365 1.755 0.44499999
1.385 1.745 0.45500001
1.405 1.745 0.45500001
1.425 1.745 0.45500001
1.405 1.725 0.47499999
1.475 1.725 0.33500001
1.4450001 1.745 0.33500001
1.455 1.745 0.345
1.505 1.735 0.32499999
1.495 1.745 0.33500001
1.4450001 1.725 0.36500001
1.475 1.725 0.36500001
1.455 1.725 0.38499999
1.505 1.725 0.36500001
1.485 1.725 0.38499999
1.535 1.745 0.33500001
1.5549999 1.745 0.345
1.575 1.735 0.32499999
1.575 1.745 0.32499999
1.535 1.725 0.36500001
1.5549999 1.725 0.375
1.525 1.725 0.38499999
1.5650001 1.735 0.36500001
1.595 1.725 0.36500001
1.585 1.725 0.375
1.4450001 1.725 0.42500001
1.475 1.725 0.42500001
1.495 1.755 0.41499999
1.505 1.725 0.42500001
1.505 1.745 0.435
1.455 1.745 0.44499999
1.465 1.745 0.44499999
1.505 1.725 0.44499999
1.495 1.745 0.44499999
1.505 1.745 0.44499999
1.495 1.725 0.47499999
1.535 1.725 0.42500001
1.5549999 1.735 0.42500001
1.545 1.745 0.435
1.5650001 1.755 0.405
1.5650001 1.735 0.42500001
1.595 1.725 0.42500001
1.585 1.745 0.42500001
1.5549999 1.755 0.44499999
1.525 1.725 0.47499999
1.5549999 1.725 0.47499999
1.585 1.725 0.465
1.3049999 1.725 0.495
1.3150001 1.725 0.495
1.3049999 1.735 0.495
1.345 1.725 0.495
1.325 1.755 0.52499998
1.375 1.725 0.48500001
1.375 1.725 0.495
1.405 1.725 0.48500001
1.415 1.735 0.495
1.4349999 1.725 0.48500001
1.375 1.745 0.53500003
1.385 1.725 0.55500001
1.385 1.745 0.55500001
1.405 1.745 0.52499998
1.415 1.735 0.55500001
1.4349999 1.755 0.54500002
1.425 1.745 0.55500001
1.3150001 1.735 0.565
1.3150001 1.745 0.565
1.3150001 1.745 0.57499999
1.3049999 1.755 0.57499999
1.285 1.725 0.58499998
1.3150001 1.725 0.58499998
1.285 1.755 0.58499998
1.345 1.735 0.565
1.355 1.745 0.565
1.335 1.735 0.59500003
1.345 1.725 0.58499998
1.325 1.755 0.58499998
1.355 1.755 0.59500003
1.3150001 1.735 0.63499999
1.345 1.735 0.625
1.325 1.745 0.625
1.375 1.725 0.57499999
1.375 1.755 0.565
1.365 1.745 0.57499999
1.385 1.755 0.59500003
1.405 1.725 0.57499999
1.4349999 1.725 0.57499999
1.425 1.735 0.57499999
1.405 1.745 0.565
1.385 1.735 0.625
1.385 1.755 0.63499999
1.415 1.755 0.60500002
1.415 1.735 0.625
1.4450001 1.725 0.495
1.465 1.725 0.48500001
1.475 1.725 0.495
1.505 1.735 0.495
1.4450001 1.735 0.55500001
1.475 1.725 0.55500001
1.4450001 1.755 0.54500002
1.465 1.745 0.54500002
1.465 1.745 0.55500001
1.505 1.755 0.53500003
1.505 1.735 0.55500001
1.495 1.745 0.54500002
1.505 1.745 0.54500002
1.515 1.745 0.54500002
1.535 1.725 0.495
1.5650001 1.725 0.495
1.595 1.735 0.495
1.575 1.745 0.505
1.545 1.745 0.53500003
1.525 1.735 0.55500001
1.535 1.735 0.55500001
1.5549999 1.755 0.55500001
1.5650001 1.745 0.53500003
1.585 1.755 0.52499998
1.585 1.745 0.53500003
1.5650001 1.735 0.55500001
1.595 1.735 0.55500001
1.465 1.725 0.57499999
1.495 1.725 0.565
1.4450001 1.755 0.60500002
1.475 1.755 0.61500001
1.4450001 1.735 0.625
1.475 1.735 0.625
1.505 1.735 0.61500001
1.505 1.755 0.61500001
1.525 1.725 0.565
1.5650001 1.725 0.565
1.595 1.725 0.565
1.535 1.735 0.61500001
1.525 1.755 0.625
1.5549999 1.755 0.625
1.5650001 1.735 0.61500001
1.595 1.735 0.61500001
1.585 1.755 0.625
1.595 1.745 0.63499999
1.625 1.755 0.345
1.615 1.725 0.36500001
1.615 1.725 0.375
1.635 1.755 0.38499999
1.645 1.725 0.36500001
1.645 1.735 0.36500001
1.675 1.725 0.36500001
1.6849999 1.755 0.345
1.745 1.725 0.35499999
1.755 1.745 0.345
1.715 1.725 0.36500001
1.705 1.725 0.375
1.715 1.755 0.36500001
1.725 1.725 0.375
1.755 1.725 0.375
1.755 1.735 0.375
1.725 1.725 0.39500001
1.725 1.745 0.39500001
1.615 1.725 0.41499999
1.615 1.745 0.41499999
1.625 1.735 0.42500001
1.625 1.745 0.42500001
1.675 1.745 0.405
1.665 1.745 0.41499999
1.645 1.725 0.42500001
1.675 1.735 0.42500001
1.625 1.755 0.45500001
1.615 1.725 0.465
1.655 1.725 0.465
1.705 1.745 0.41499999
1.705 1.725 0.435
1.745 1.745 0.405
1.725 1.735 0.435
1.755 1.725 0.435
1.715 1.725 0.45500001
1.6849999 1.745 0.45500001
1.6849999 1.725 0.465
1.745 1.725 0.45500001
1.755 1.755 0.465
1.775 1.725 0.35499999
1.795 1.755 0.35499999
1.8049999 1.725 0.35499999
1.825 1.755 0.35499999
1.775 1.725 0.375
1.785 1.735 0.38499999
1.795 1.745 0.39500001
1.8049999 1.725 0.375
1.825 1.735 0.375
1.8150001 1.735 0.39500001
1.835 1.745 0.39500001
1.875 1.755 0.33500001
1.845 1.725 0.345
1.875 1.725 0.345
1.895 1.725 0.32499999
1.915 1.735 0.32499999
1.895 1.755 0.35499999
1.845 1.725 0.36500001
1.845 1.725 0.375
1.845 1.735 0.375
1.875 1.725 0.375
1.875 1.745 0.38499999
1.895 1.725 0.375
1.905 1.735 0.36500001
1.915 1.725 0.375
1.775 1.725 0.435
1.8049999 1.735 0.435
1.825 1.735 0.435
1.785 1.725 0.45500001
1.8150001 1.725 0.44499999
1.8049999 1.755 0.47499999
1.825 1.745 0.465
1.855 1.735 0.435
1.875 1.725 0.435
1.895 1.735 0.435
1.915 1.735 0.435
1.845 1.725 0.44499999
1.875 1.725 0.44499999
1.895 1.755 0.465
1.895 1.745 0.47499999
1.625 1.735 0.495
1.655 1.725 0.495
1.675 1.735 0.495
1.655 1.755 0.505
1.635 1.735 0.53500003
1.625 1.745 0.52499998
1.625 1.745 0.53500003
1.625 1.725 0.55500001
1.625 1.735 0.55500001
1.625 1.745 0.55500001
1.665 1.745 0.52499998
1.675 1.745 0.52499998
1.655 1.725 0.55500001
1.655 1.735 0.55500001
1.675 1.725 0.54500002
1.705 1.735 0.48500001
1.715 1.745 0.51499999
1.725 1.735 0.48500001
1.755 1.735 0.48500001
1.725 1.755 0.495
1.755 1.745 0.48500001
1.745 1.725 0.505
1.735 1.745 0.51499999
1.755 1.745 0.51499999
1.6849999 1.725 0.55500001
1.705 1.735 0.54500002
1.715 1.725 0.55500001
1.735 1.735 0.54500002
1.755 1.725 0.54500002
1.625 1.735 0.61500001
1.605 1.755 0.63499999
1.635 1.745 0.63499999
1.635 1.755 0.63499999
1.655 1.735 0.61500001
1.675 1.735 0.60500002
1.675 1.745 0.625
1.665 1.755 0.625
1.6849999 1.755 0.565
1.755 1.735 0.57499999
1.755 1.745 0.57499999
1.705 1.725 0.60500002
1.6849999 1.745 0.63499999
1.715 1.745 0.625
1.735 1.735 0.60500002
1.755 1.735 0.60500002
1.755 1.745 0.61500001
1.745 1.755 0.61500001
1.745 1.745 0.625
1.775 1.735 0.48500001
1.795 1.745 0.505
1.8049999 1.735 0.48500001
1.825 1.735 0.48500001
1.835 1.745 0.505
1.785 1.725 0.54500002
1.785 1.735 0.54500002
1.8150001 1.725 0.54500002
1.8049999 1.735 0.54500002
1.825 1.735 0.54500002
1.855 1.735 0.48500001
1.865 1.725 0.48500001
1.875 1.735 0.48500001
1.855 1.745 0.495
1.895 1.735 0.48500001
1.885 1.745 0.495
1.915 1.745 0.48500001
1.855 1.725 0.53500003
1.855 1.735 0.54500002
1.875 1.735 0.54500002
1.885 1.725 0.53500003
1.895 1.735 0.54500002
1.825 1.745 0.57499999
1.825 1.735 0.59500003
1.785 1.735 0.60500002
1.795 1.745 0.61500001
1.765 1.735 0.625
1.785 1.725 0.63499999
1.8049999 1.735 0.60500002
1.835 1.735 0.60500002
1.8049999 1.745 0.61500001
1.825 1.755 0.60500002
1.825 1.725 0.63499999
1.875 1.735 0.59500003
1.905 1.735 0.59500003
1.895 1.755 0.58499998
1.905 1.755 0.59500003
1.855 1.735 0.60500002
1.845 1.745 0.60500002
1.855 1.745 0.61500001
1.855 1.725 0.63499999
1.895 1.735 0.60500002
1.895 1.745 0.60500002
1.885 1.725 0.625
1.955 1.735 0.105
1.975 1.725 0.105
1.9349999 1.725 0.155
1.955 1.725 0.145
1.955 1.735 0.145
1.955 1.725 0.155
1.975 1.755 0.125
1.985 1.725 0.155
2.0050001 1.725 0.105
2.0250001 1.725 0.105
2.0450001 1.725 0.105
2.0650001 1.725 0.105
2.0050001 1.735 0.13500001
2.0050001 1.725 0.155
2.0350001 1.735 0.155
2.0550001 1.735 0.125
2.0550001 1.745 0.125
2.085 1.725 0.115
2.105 1.735 0.105
2.105 1.725 0.115
2.125 1.725 0.115
2.145 1.725 0.115
2.135 1.755 0.125
2.125 1.745 0.13500001
2.165 1.725 0.115
2.1849999 1.725 0.115
2.2149999 1.745 0.115
2.1849999 1.725 0.125
2.2049999 1.725 0.125
2.2149999 1.725 0.125
2.2349999 1.725 0.125
2.2249999 1.745 0.125
1.9450001 1.755 0.185
1.9349999 1.725 0.205
1.9349999 1.725 0.215
1.955 1.725 0.215
1.985 1.725 0.215
1.965 1.735 0.22499999
2.0250001 1.725 0.16500001
2.0350001 1.755 0.16500001
2.0450001 1.725 0.16500001
2.0650001 1.725 0.16500001
2.075 1.725 0.16500001
2.0050001 1.725 0.215
2.0250001 1.725 0.215
2.0350001 1.735 0.215
2.0450001 1.725 0.215
2.0650001 1.725 0.215
2.0550001 1.735 0.235
1.9349999 1.725 0.26499999
1.9450001 1.735 0.27500001
1.975 1.755 0.245
1.965 1.745 0.255
1.965 1.725 0.26499999
1.985 1.725 0.26499999
1.955 1.755 0.315
2.0150001 1.745 0.245
2.0050001 1.725 0.27500001
2.0250001 1.725 0.27500001
2.0550001 1.745 0.245
2.0450001 1.735 0.27500001
2.0650001 1.725 0.27500001
2.0450001 1.755 0.29499999
2.085 1.725 0.16500001
2.105 1.725 0.16500001
2.095 1.735 0.19499999
2.125 1.735 0.16500001
2.145 1.725 0.175
2.085 1.725 0.22499999
2.105 1.735 0.22499999
2.105 1.745 0.22499999
2.155 1.735 0.215
2.125 1.725 0.22499999
2.145 1.725 0.22499999
2.165 1.725 0.175
2.165 1.735 0.175
2.1849999 1.725 0.175
2.2049999 1.725 0.175
2.2249999 1.725 0.175
2.2349999 1.725 0.175
2.2349999 1.755 0.19499999
2.165 1.725 0.22499999
2.1849999 1.725 0.22499999
2.2049999 1.745 0.205
2.2049999 1.725 0.22499999
2.2249999 1.725 0.22499999
2.2249999 1.735 0.235
2.2349999 1.745 0.22499999
2.2349999 1.755 0.235
2.085 1.735 0.27500001
2.105 1.725 0.27500001
2.095 1.755 0.27500001
2.135 1.745 0.245
2.125 1.725 0.27500001
2.145 1.725 0.27500001
2.145 1.755 0.27500001
2.105 1.725 0.29499999
2.165 1.725 0.27500001
2.1849999 1.735 0.27500001
2.2249999 1.745 0.245
2.2349999 1.745 0.245
2.2249999 1.755 0.245
2.2249999 1.745 0.255
2.2249999 1.755 0.255
2.2349999 1.755 0.255
2.2049999 1.735 0.27500001
2.2249999 1.755 0.26499999
2.2349999 1.755 0.26499999
2.2249999 1.755 0.27500001
2.175 1.735 0.30500001
2.2249999 1.725 0.285
2.2249999 1.765 0.245
2.2550001 1.725 0.125
2.2750001 1.725 0.125
2.2950001 1.725 0.125
2.3150001 1.725 0.13500001
2.3050001 1.745 0.125
2.325 1.725 0.13500001
2.345 1.725 0.13500001
2.365 1.725 0.13500001
2.385 1.725 0.13500001
2.395 1.725 0.13500001
2.405 1.755 0.115
2.415 1.725 0.13500001
2.4349999 1.725 0.13500001
2.4549999 1.725 0.13500001
2.4649999 1.725 0.13500001
2.5050001 1.745 0.115
2.4849999 1.725 0.13500001
2.5050001 1.725 0.13500001
2.5150001 1.725 0.13500001
2.5350001 1.725 0.13500001
2.5550001 1.725 0.13500001
2.2550001 1.725 0.175
2.2750001 1.725 0.175
2.2650001 1.735 0.19499999
2.2550001 1.755 0.185
2.2950001 1.725 0.185
2.3150001 1.735 0.185
2.3150001 1.745 0.185
2.2449999 1.725 0.235
2.2550001 1.725 0.235
2.2750001 1.725 0.235
2.2550001 1.745 0.22499999
2.2950001 1.725 0.235
2.3150001 1.725 0.235
2.335 1.725 0.185
2.345 1.725 0.185
2.365 1.725 0.185
2.385 1.725 0.185
2.335 1.725 0.235
2.345 1.735 0.235
2.335 1.755 0.235
2.375 1.735 0.215
2.385 1.725 0.215
2.365 1.725 0.235
2.385 1.725 0.235
2.2550001 1.725 0.255
2.3150001 1.755 0.245
2.2449999 1.725 0.285
2.2650001 1.725 0.285
2.2750001 1.725 0.285
2.2650001 1.745 0.315
2.2950001 1.735 0.285
2.3150001 1.735 0.285
2.345 1.755 0.27500001
2.335 1.725 0.285
2.345 1.735 0.285
2.325 1.745 0.30500001
2.365 1.725 0.285
2.385 1.735 0.285
2.405 1.725 0.185
2.415 1.725 0.185
2.4349999 1.725 0.185
2.4549999 1.725 0.185
2.4649999 1.725 0.185
2.415 1.725 0.215
2.405 1.725 0.235
2.415 1.725 0.235
2.4349999 1.735 0.235
2.4449999 1.755 0.205
2.4549999 1.725 0.235
2.4649999 1.725 0.235
2.5050001 1.755 0.175
2.4849999 1.725 0.185
2.5050001 1.725 0.185
2.5150001 1.725 0.185
2.4949999 1.755 0.185
2.5350001 1.725 0.185
2.5550001 1.725 0.185
2.5550001 1.755 0.185
2.4849999 1.725 0.235
2.4849999 1.735 0.235
2.5050001 1.725 0.235
2.5150001 1.735 0.235
2.4849999 1.745 0.22499999
2.4949999 1.755 0.22499999
2.5050001 1.745 0.22499999
2.5350001 1.725 0.235
2.5550001 1.725 0.235
2.4749999 1.745 0.245
2.4749999 1.755 0.26499999
2.405 1.725 0.285
2.415 1.725 0.285
2.4349999 1.735 0.285
2.4349999 1.725 0.30500001
2.4549999 1.725 0.285
2.4749999 1.725 0.285
2.4849999 1.745 0.245
2.4849999 1.755 0.245
2.4849999 1.745 0.255
2.4849999 1.755 0.255
2.4949999 1.755 0.255
2.5050001 1.745 0.255
2.4949999 1.755 0.26499999
2.4849999 1.755 0.27500001
2.4849999 1.735 0.285
2.5050001 1.735 0.285
2.5250001 1.725 0.285
2.5350001 1.735 0.285
2.5550001 1.735 0.285
2.5350001 1.735 0.315
2.4849999 1.765 0.235
2.4849999 1.765 0.245
1.9349999 1.735 0.32499999
1.975 1.725 0.32499999
1.965 1.735 0.32499999
1.985 1.735 0.32499999
1.975 1.735 0.345
1.965 1.735 0.35499999
1.975 1.745 0.35499999
1.9450001 1.735 0.375
1.925 1.745 0.375
1.965 1.735 0.375
1.985 1.725 0.375
1.975 1.745 0.36500001
2.0050001 1.735 0.32499999
2.0250001 1.725 0.32499999
2.0350001 1.745 0.33500001
2.0450001 1.735 0.32499999
2.0650001 1.735 0.32499999
2.0650001 1.745 0.35499999
2.0050001 1.735 0.375
2.0350001 1.735 0.36500001
2.0250001 1.735 0.375
2.0150001 1.745 0.36500001
2.0450001 1.725 0.375
2.0550001 1.755 0.36500001
2.0650001 1.725 0.38499999
1.9450001 1.735 0.435
1.965 1.735 0.435
1.985 1.735 0.435
1.955 1.745 0.465
1.995 1.725 0.45500001
1.975 1.755 0.44499999
1.975 1.745 0.47499999
1.975 1.755 0.47499999
2.0050001 1.735 0.435
2.0250001 1.725 0.435
2.0450001 1.725 0.435
2.075 1.725 0.435
2.0650001 1.755 0.435
2.0250001 1.745 0.47499999
2.0450001 1.745 0.465
2.075 1.745 0.465
2.085 1.735 0.32499999
2.105 1.725 0.32499999
2.105 1.735 0.32499999
2.115 1.745 0.345
2.125 1.735 0.32499999
2.145 1.725 0.32499999
2.085 1.725 0.38499999
2.105 1.735 0.38499999
2.135 1.745 0.36500001
2.125 1.735 0.38499999
2.145 1.725 0.38499999
2.165 1.725 0.33500001
2.1849999 1.725 0.33500001
2.165 1.745 0.33500001
2.2049999 1.725 0.33500001
2.2249999 1.735 0.33500001
2.2149999 1.745 0.32499999
2.165 1.725 0.38499999
2.1849999 1.735 0.38499999
2.2149999 1.745 0.375
2.2049999 1.725 0.38499999
2.2249999 1.735 0.38499999
2.085 1.735 0.435
2.105 1.735 0.435
2.135 1.725 0.41499999
2.155 1.755 0.41499999
2.125 1.735 0.435
2.145 1.735 0.435
2.115 1.745 0.44499999
2.125 1.745 0.45500001
2.165 1.735 0.435
2.1849999 1.725 0.435
2.2049999 1.735 0.435
2.2249999 1.735 0.435
2.2349999 1.755 0.435
2.165 1.745 0.44499999
2.2249999 1.745 0.44499999
2.2349999 1.745 0.44499999
2.2249999 1.745 0.45500001
2.2349999 1.755 0.45500001
2.2249999 1.745 0.465
2.2349999 1.755 0.465
2.2249999 1.755 0.47499999
2.2349999 1.765 0.45500001
2.2349999 1.765 0.465
2.2349999 1.765 0.47499999
1.925 1.735 0.48500001
1.9450001 1.735 0.48500001
1.9349999 1.745 0.48500001
1.965 1.735 0.48500001
1.985 1.735 0.48500001
1.975 1.745 0.48500001
1.925 1.735 0.54500002
1.9450001 1.735 0.54500002
1.965 1.735 0.54500002
1.985 1.735 0.54500002
2.0050001 1.735 0.48500001
2.0250001 1.735 0.48500001
2.0550001 1.725 0.48500001
2.075 1.735 0.48500001
2.0550001 1.745 0.48500001
2.0050001 1.735 0.53500003
2.0250001 1.735 0.53500003
2.0550001 1.735 0.53500003
2.075 1.735 0.53500003
1.925 1.735 0.59500003
1.9450001 1.735 0.59500003
1.9349999 1.745 0.59500003
1.975 1.735 0.565
1.995 1.755 0.57499999
1.965 1.735 0.59500003
1.985 1.735 0.59500003
1.975 1.745 0.59500003
1.985 1.745 0.59500003
1.925 1.745 0.60500002
2.0250001 1.735 0.57499999
2.0150001 1.735 0.59500003
2.0350001 1.735 0.59500003
2.0350001 1.745 0.58499998
2.0450001 1.735 0.58499998
2.0550001 1.735 0.59500003
2.075 1.735 0.59500003
2.0550001 1.745 0.58499998
2.075 1.745 0.58499998
2.0550001 1.745 0.60500002
2.095 1.735 0.48500001
2.115 1.735 0.48500001
2.135 1.735 0.48500001
2.155 1.735 0.48500001
2.135 1.745 0.48500001
2.095 1.735 0.53500003
2.115 1.735 0.53500003
2.135 1.735 0.53500003
2.155 1.735 0.53500003
2.165 1.735 0.48500001
2.1849999 1.735 0.48500001
2.2049999 1.735 0.48500001
2.2249999 1.735 0.48500001
2.2249999 1.755 0.495
2.175 1.735 0.53500003
2.1949999 1.735 0.53500003
2.165 1.735 0.54500002
2.1949999 1.735 0.54500002
2.175 1.755 0.54500002
2.2049999 1.735 0.53500003
2.2249999 1.735 0.53500003
2.085 1.755 0.565
2.095 1.725 0.58499998
2.115 1.735 0.58499998
2.125 1.745 0.57499999
2.135 1.735 0.58499998
2.155 1.735 0.58499998
2.145 1.725 0.61500001
2.135 1.755 0.61500001
2.135 1.735 0.63499999
2.155 1.735 0.63499999
2.175 1.745 0.565
2.1949999 1.745 0.565
2.175 1.735 0.58499998
2.1949999 1.735 0.58499998
2.2249999 1.745 0.565
2.2049999 1.735 0.58499998
2.2249999 1.735 0.58499998
2.175 1.735 0.63499999
2.1949999 1.735 0.63499999
2.2149999 1.735 0.63499999
2.2349999 1.735 0.63499999
2.2149999 1.745 0.625
2.105 1.765 0.48500001
2.2349999 1.765 0.48500001
2.2449999 1.735 0.33500001
2.2650001 1.725 0.33500001
2.2750001 1.735 0.33500001
2.2750001 1.735 0.345
2.2950001 1.735 0.33500001
2.3150001 1.725 0.33500001
2.2449999 1.725 0.38499999
2.2650001 1.725 0.38499999
2.2750001 1.735 0.38499999
2.2449999 1.755 0.39500001
2.2550001 1.755 0.39500001
2.3050001 1.745 0.375
2.2850001 1.725 0.38499999
2.2950001 1.735 0.38499999
2.3150001 1.735 0.38499999
2.335 1.725 0.33500001
2.355 1.735 0.33500001
2.365 1.725 0.33500001
2.385 1.735 0.33500001
2.355 1.755 0.375
2.335 1.725 0.38499999
2.355 1.735 0.38499999
2.365 1.735 0.38499999
2.385 1.735 0.38499999
2.2449999 1.735 0.435
2.2650001 1.735 0.435
2.2550001 1.755 0.435
2.2750001 1.745 0.435
2.2850001 1.735 0.435
2.2950001 1.735 0.435
2.3150001 1.735 0.435
2.2449999 1.755 0.44499999
2.335 1.735 0.435
2.355 1.735 0.435
2.325 1.745 0.42500001
2.365 1.725 0.405
2.375 1.725 0.435
2.385 1.735 0.435
2.385 1.745 0.42500001
2.405 1.735 0.33500001
2.425 1.735 0.33500001
2.4349999 1.735 0.33500001
2.4549999 1.735 0.33500001
2.4749999 1.725 0.33500001
2.4549999 1.725 0.345
2.4649999 1.755 0.35499999
2.405 1.755 0.375
2.405 1.735 0.38499999
2.4349999 1.725 0.38499999
2.425 1.735 0.38499999
2.4549999 1.725 0.38499999
2.4749999 1.735 0.38499999
2.4849999 1.725 0.33500001
2.5050001 1.725 0.33500001
2.5250001 1.735 0.33500001
2.5350001 1.735 0.33500001
2.5550001 1.725 0.33500001
2.4849999 1.735 0.38499999
2.5050001 1.735 0.38499999
2.5050001 1.745 0.38499999
2.5250001 1.735 0.38499999
2.5350001 1.735 0.38499999
2.5550001 1.735 0.38499999
2.405 1.735 0.435
2.425 1.735 0.435
2.4349999 1.735 0.435
2.4549999 1.735 0.435
2.4749999 1.735 0.435
2.4449999 1.725 0.47499999
2.4549999 1.735 0.47499999
2.4749999 1.735 0.47499999
2.5050001 1.755 0.405
2.4949999 1.735 0.435
2.5050001 1.735 0.435
2.5250001 1.735 0.435
2.5450001 1.735 0.435
2.5550001 1.735 0.435
2.4949999 1.755 0.44499999
2.4849999 1.745 0.45500001
2.4949999 1.745 0.45500001
2.4849999 1.755 0.45500001
2.5150001 1.755 0.44499999
2.4949999 1.735 0.47499999
2.5050001 1.735 0.47499999
2.4949999 1.755 0.465
2.4849999 1.745 0.47499999
2.4949999 1.755 0.47499999
2.5250001 1.725 0.47499999
2.5450001 1.735 0.47499999
2.5550001 1.735 0.47499999
2.2550001 1.765 0.39500001
2.5150001 1.765 0.39500001
2.4849999 1.765 0.45500001
2.4949999 1.765 0.45500001
2.4849999 1.765 0.465
2.4949999 1.765 0.465
2.4949999 1.765 0.47499999
2.2449999 1.735 0.48500001
2.2650001 1.735 0.48500001
2.2850001 1.735 0.48500001
2.3050001 1.735 0.48500001
2.3150001 1.735 0.48500001
2.3150001 1.725 0.51499999
2.3050001 1.745 0.505
2.2449999 1.735 0.53500003
2.2650001 1.735 0.53500003
2.2750001 1.755 0.53500003
2.2850001 1.735 0.53500003
2.3050001 1.735 0.53500003
2.3150001 1.735 0.53500003
2.2850001 1.745 0.55500001
2.335 1.735 0.48500001
2.355 1.735 0.48500001
2.375 1.735 0.48500001
2.385 1.735 0.48500001
2.375 1.755 0.51499999
2.335 1.735 0.53500003
2.355 1.735 0.52499998
2.335 1.745 0.54500002
2.375 1.735 0.52499998
2.385 1.735 0.52499998
2.2449999 1.735 0.58499998
2.2650001 1.735 0.58499998
2.2850001 1.735 0.565
2.2850001 1.735 0.58499998
2.3050001 1.735 0.58499998
2.3150001 1.735 0.58499998
2.2449999 1.735 0.63499999
2.2650001 1.735 0.63499999
2.2850001 1.735 0.63499999
2.3050001 1.735 0.63499999
2.3150001 1.755 0.63499999
2.335 1.735 0.57499999
2.355 1.735 0.57499999
2.375 1.735 0.57499999
2.395 1.735 0.57499999
2.365 1.725 0.59500003
2.325 1.735 0.625
2.335 1.735 0.625
2.355 1.735 0.625
2.375 1.735 0.625
2.395 1.735 0.625
2.385 1.745 0.63499999
2.405 1.735 0.48500001
2.405 1.745 0.505
2.4749999 1.755 0.495
2.405 1.735 0.52499998
2.425 1.735 0.52499998
2.4349999 1.735 0.52499998
2.4449999 1.735 0.52499998
2.4549999 1.735 0.52499998
2.4749999 1.735 0.52499998
2.4849999 1.725 0.48500001
2.5050001 1.755 0.51499999
2.4949999 1.735 0.52499998
2.5050001 1.735 0.52499998
2.5250001 1.735 0.52499998
2.5450001 1.735 0.52499998
2.5550001 1.735 0.52499998
2.5450001 1.735 0.54500002
2.405 1.735 0.57499999
2.425 1.725 0.57499999
2.4449999 1.735 0.57499999
2.4549999 1.735 0.57499999
2.4749999 1.735 0.57499999
2.405 1.735 0.625
2.425 1.735 0.625
2.4449999 1.735 0.625
2.4649999 1.735 0.625
2.4749999 1.735 0.625
2.4949999 1.735 0.57499999
2.5150001 1.735 0.57499999
2.5250001 1.735 0.57499999
2.5450001 1.735 0.57499999
2.5550001 1.735 0.57499999
2.4949999 1.735 0.625
2.5150001 1.735 0.625
2.5250001 1.735 0.625
2.5450001 1.735 0.625
2.355 1.765 0.48500001
2.2550001 1.765 0.60500002
2.2650001 1.765 0.60500002
2.4949999 1.765 0.48500001
2.5150001 1.765 0.625
2.5250001 1.765 0.61500001
1.285 1.755 0.65499997
1.285 1.725 0.67500001
1.3150001 1.725 0.67500001
1.285 1.745 0.66500002
1.3150001 1.745 0.66500002
1.345 1.725 0.67500001
1.325 1.755 0.66500002
1.355 1.745 0.66500002
1.355 1.755 0.66500002
1.3150001 1.745 0.685
1.3150001 1.735 0.70499998
1.345 1.735 0.69499999
1.325 1.755 0.685
1.355 1.735 0.70499998
1.395 1.745 0.65499997
1.375 1.725 0.66500002
1.365 1.745 0.67500001
1.385 1.755 0.66500002
1.385 1.755 0.67500001
1.4349999 1.745 0.64499998
1.4349999 1.745 0.65499997
1.405 1.725 0.66500002
1.415 1.745 0.67500001
1.415 1.755 0.67500001
1.385 1.735 0.69499999
1.415 1.735 0.69499999
1.415 1.745 0.70499998
1.285 1.755 0.72500002
1.325 1.755 0.73500001
1.355 1.755 0.73500001
1.355 1.725 0.755
1.295 1.725 0.76499999
1.3150001 1.735 0.76499999
1.285 1.745 0.76499999
1.325 1.725 0.76499999
1.345 1.735 0.76499999
1.325 1.745 0.76499999
1.325 1.745 0.78500003
1.335 1.755 0.79500002
1.385 1.755 0.73500001
1.385 1.725 0.755
1.415 1.725 0.755
1.415 1.735 0.755
1.415 1.755 0.745
1.405 1.745 0.755
1.4349999 1.745 0.745
1.4349999 1.745 0.755
1.385 1.735 0.76499999
1.365 1.745 0.76499999
1.375 1.745 0.78500003
1.395 1.755 0.78500003
1.425 1.745 0.77499998
1.475 1.745 0.65499997
1.4450001 1.725 0.66500002
1.475 1.725 0.66500002
1.455 1.755 0.66500002
1.4450001 1.755 0.67500001
1.465 1.745 0.66500002
1.495 1.745 0.65499997
1.515 1.745 0.64499998
1.515 1.745 0.65499997
1.505 1.725 0.66500002
1.4450001 1.735 0.685
1.475 1.735 0.685
1.475 1.755 0.685
1.515 1.735 0.685
1.505 1.755 0.685
1.535 1.725 0.65499997
1.525 1.755 0.65499997
1.5549999 1.745 0.64499998
1.5549999 1.755 0.65499997
1.545 1.735 0.66500002
1.5650001 1.725 0.65499997
1.595 1.725 0.65499997
1.575 1.745 0.64499998
1.595 1.755 0.64499998
1.5650001 1.735 0.67500001
1.595 1.735 0.67500001
1.535 1.735 0.685
1.535 1.755 0.685
1.5549999 1.755 0.69499999
1.585 1.745 0.69499999
1.585 1.755 0.69499999
1.4450001 1.725 0.755
1.4450001 1.735 0.755
1.475 1.725 0.755
1.4450001 1.755 0.745
1.475 1.755 0.745
1.475 1.745 0.755
1.485 1.735 0.755
1.505 1.725 0.745
1.515 1.735 0.745
1.495 1.755 0.755
1.515 1.745 0.745
1.475 1.745 0.76499999
1.465 1.755 0.77499998
1.465 1.735 0.79500002
1.535 1.725 0.745
1.535 1.735 0.745
1.535 1.755 0.755
1.5549999 1.745 0.745
1.5549999 1.755 0.755
1.595 1.735 0.73500001
1.595 1.745 0.73500001
1.5650001 1.725 0.745
1.575 1.735 0.745
1.575 1.745 0.755
1.525 1.745 0.76499999
1.535 1.755 0.76499999
1.5549999 1.745 0.76499999
1.5650001 1.735 0.77499998
1.585 1.755 0.76499999
1.285 1.765 0.79500002
1.505 1.765 0.755
1.3150001 1.735 0.83499998
1.325 1.755 0.80500001
1.355 1.755 0.80500001
1.355 1.735 0.83499998
1.325 1.745 0.83499998
1.285 1.735 0.84500003
1.295 1.725 0.85500002
1.295 1.745 0.86500001
1.295 1.755 0.86500001
1.325 1.725 0.84500003
1.355 1.725 0.84500003
1.335 1.745 0.86500001
1.325 1.755 0.875
1.355 1.755 0.875
1.375 1.735 0.80500001
1.385 1.755 0.80500001
1.385 1.735 0.83499998
1.415 1.755 0.815
1.415 1.735 0.82499999
1.385 1.725 0.84500003
1.365 1.745 0.85500002
1.385 1.755 0.84500003
1.385 1.755 0.875
1.415 1.725 0.84500003
1.405 1.745 0.85500002
1.4349999 1.745 0.85500002
1.415 1.755 0.875
1.425 1.745 0.875
1.285 1.745 0.89499998
1.285 1.735 0.91500002
1.3150001 1.735 0.91500002
1.325 1.745 0.88499999
1.355 1.735 0.90499997
1.295 1.735 0.92500001
1.295 1.725 0.935
1.295 1.755 0.935
1.335 1.725 0.935
1.325 1.745 0.935
1.335 1.745 0.95499998
1.385 1.735 0.89499998
1.375 1.745 0.88499999
1.385 1.735 0.90499997
1.415 1.735 0.89499998
1.415 1.745 0.88499999
1.365 1.725 0.935
1.395 1.725 0.935
1.375 1.745 0.95499998
1.385 1.755 0.94499999
1.425 1.725 0.935
1.415 1.755 0.94499999
1.415 1.745 0.95499998
1.4450001 1.755 0.815
1.475 1.755 0.815
1.455 1.735 0.82499999
1.485 1.735 0.815
1.515 1.735 0.815
1.515 1.725 0.83499998
1.4450001 1.725 0.84500003
1.475 1.725 0.84500003
1.4450001 1.745 0.85500002
1.4450001 1.755 0.875
1.475 1.745 0.875
1.485 1.745 0.85500002
1.515 1.735 0.875
1.495 1.745 0.86500001
1.545 1.735 0.80500001
1.545 1.725 0.83499998
1.535 1.755 0.82499999
1.575 1.735 0.80500001
1.575 1.725 0.83499998
1.5650001 1.755 0.82499999
1.585 1.755 0.82499999
1.525 1.745 0.84500003
1.545 1.735 0.875
1.525 1.745 0.875
1.5549999 1.755 0.875
1.5650001 1.745 0.84500003
1.575 1.735 0.875
1.585 1.745 0.86500001
1.585 1.745 0.875
1.455 1.735 0.88499999
1.485 1.735 0.88499999
1.485 1.735 0.89499998
1.455 1.725 0.935
1.455 1.735 0.95499998
1.455 1.755 0.95499998
1.485 1.725 0.92500001
1.515 1.725 0.92500001
1.485 1.735 0.95499998
1.515 1.735 0.94499999
1.485 1.745 0.95499998
1.535 1.755 0.88499999
1.595 1.735 0.88499999
1.545 1.725 0.92500001
1.545 1.735 0.94499999
1.525 1.755 0.94499999
1.575 1.725 0.92500001
1.575 1.735 0.935
1.5650001 1.745 0.94499999
1.285 1.765 0.91500002
1.345 1.765 0.90499997
1.325 1.765 0.94499999
1.355 1.765 0.94499999
1.415 1.765 0.89499998
1.505 1.765 0.815
1.475 1.765 0.88499999
1.475 1.765 0.89499998
1.505 1.765 0.88499999
1.4450001 1.765 0.94499999
1.475 1.765 0.94499999
1.505 1.765 0.94499999
1.545 1.765 0.88499999
1.5650001 1.765 0.88499999
1.585 1.765 0.88499999
1.535 1.765 0.94499999
1.5650001 1.765 0.95499998
1.585 1.765 0.95499998
1.625 1.725 0.65499997
1.625 1.745 0.64499998
1.625 1.735 0.67500001
1.625 1.755 0.66500002
1.655 1.725 0.64499998
1.655 1.735 0.64499998
1.665 1.755 0.64499998
1.655 1.735 0.67500001
1.675 1.735 0.67500001
1.615 1.755 0.69499999
1.665 1.755 0.70499998
1.6950001 1.725 0.64499998
1.6849999 1.755 0.64499998
1.715 1.755 0.64499998
1.705 1.735 0.66500002
1.6849999 1.745 0.67500001
1.725 1.725 0.64499998
1.755 1.725 0.64499998
1.735 1.755 0.64499998
1.735 1.735 0.66500002
1.755 1.735 0.66500002
1.6849999 1.755 0.70499998
1.715 1.755 0.70499998
1.755 1.745 0.685
1.735 1.755 0.71499997
1.625 1.735 0.73500001
1.635 1.745 0.73500001
1.605 1.725 0.745
1.635 1.725 0.745
1.605 1.755 0.755
1.635 1.745 0.755
1.655 1.735 0.73500001
1.665 1.725 0.73500001
1.675 1.745 0.73500001
1.675 1.755 0.73500001
1.615 1.755 0.76499999
1.635 1.755 0.76499999
1.625 1.755 0.77499998
1.625 1.735 0.79500002
1.665 1.755 0.76499999
1.655 1.735 0.79500002
1.675 1.755 0.78500003
1.6950001 1.725 0.73500001
1.6849999 1.735 0.73500001
1.705 1.735 0.72500002
1.6950001 1.755 0.73500001
1.715 1.755 0.73500001
1.6849999 1.735 0.755
1.6849999 1.745 0.745
1.6849999 1.755 0.745
1.735 1.735 0.72500002
1.725 1.725 0.73500001
1.725 1.745 0.72500002
1.735 1.755 0.73500001
1.745 1.755 0.73500001
1.755 1.755 0.73500001
1.745 1.745 0.745
1.6849999 1.755 0.76499999
1.715 1.755 0.77499998
1.6849999 1.735 0.79500002
1.705 1.735 0.78500003
1.6849999 1.745 0.78500003
1.6950001 1.755 0.78500003
1.715 1.755 0.78500003
1.735 1.755 0.77499998
1.735 1.735 0.78500003
1.735 1.755 0.78500003
1.755 1.755 0.79500002
1.765 1.755 0.65499997
1.785 1.755 0.65499997
1.785 1.735 0.66500002
1.765 1.745 0.67500001
1.835 1.735 0.65499997
1.8049999 1.755 0.65499997
1.8049999 1.735 0.66500002
1.835 1.755 0.66500002
1.765 1.755 0.71499997
1.785 1.755 0.71499997
1.825 1.755 0.69499999
1.8049999 1.735 0.71499997
1.835 1.735 0.71499997
1.8049999 1.745 0.71499997
1.8049999 1.755 0.71499997
1.855 1.735 0.65499997
1.875 1.735 0.65499997
1.855 1.755 0.66500002
1.875 1.755 0.66500002
1.905 1.735 0.65499997
1.895 1.755 0.66500002
1.855 1.735 0.71499997
1.875 1.735 0.71499997
1.855 1.745 0.71499997
1.905 1.735 0.71499997
1.895 1.755 0.70499998
1.895 1.745 0.71499997
1.765 1.735 0.72500002
1.765 1.725 0.73500001
1.795 1.725 0.72500002
1.785 1.735 0.72500002
1.765 1.745 0.72500002
1.765 1.755 0.73500001
1.785 1.755 0.73500001
1.795 1.735 0.745
1.825 1.725 0.72500002
1.8049999 1.745 0.73500001
1.8049999 1.755 0.73500001
1.835 1.755 0.72500002
1.825 1.755 0.73500001
1.765 1.735 0.77499998
1.785 1.735 0.77499998
1.765 1.755 0.77499998
1.785 1.755 0.77499998
1.765 1.735 0.78500003
1.775 1.755 0.79500002
1.785 1.755 0.79500002
1.8049999 1.735 0.77499998
1.835 1.735 0.77499998
1.8150001 1.755 0.78500003
1.8049999 1.755 0.79500002
1.835 1.755 0.78500003
1.825 1.755 0.79500002
1.855 1.725 0.72500002
1.845 1.755 0.73500001
1.865 1.745 0.72500002
1.875 1.755 0.72500002
1.865 1.755 0.73500001
1.875 1.755 0.73500001
1.895 1.725 0.72500002
1.895 1.755 0.72500002
1.895 1.755 0.73500001
1.915 1.755 0.73500001
1.855 1.735 0.77499998
1.845 1.755 0.79500002
1.865 1.755 0.79500002
1.885 1.735 0.76499999
1.905 1.735 0.76499999
1.885 1.755 0.79500002
1.905 1.755 0.78500003
1.905 1.755 0.79500002
1.915 1.755 0.79500002
1.635 1.765 0.70499998
1.915 1.765 0.66500002
1.855 1.765 0.72500002
1.855 1.765 0.78500003
1.875 1.765 0.78500003
1.605 1.735 0.80500001
1.605 1.725 0.83499998
1.635 1.725 0.83499998
1.615 1.755 0.82499999
1.635 1.755 0.82499999
1.665 1.725 0.82499999
1.645 1.745 0.83499998
1.665 1.755 0.83499998
1.605 1.745 0.84500003
1.605 1.735 0.86500001
1.625 1.735 0.86500001
1.615 1.755 0.875
1.635 1.745 0.86500001
1.655 1.735 0.85500002
1.675 1.755 0.84500003
1.6950001 1.725 0.82499999
1.6849999 1.745 0.83499998
1.6950001 1.755 0.83499998
1.735 1.725 0.82499999
1.725 1.745 0.83499998
1.6849999 1.735 0.85500002
1.705 1.735 0.85500002
1.6950001 1.755 0.84500003
1.6950001 1.745 0.85500002
1.715 1.755 0.84500003
1.705 1.735 0.875
1.735 1.735 0.84500003
1.735 1.755 0.84500003
1.755 1.755 0.84500003
1.755 1.745 0.85500002
1.625 1.745 0.88499999
1.645 1.755 0.89499998
1.675 1.755 0.89499998
1.675 1.725 0.91500002
1.605 1.725 0.92500001
1.605 1.735 0.935
1.635 1.725 0.92500001
1.635 1.735 0.92500001
1.605 1.745 0.94499999
1.655 1.735 0.92500001
1.645 1.745 0.94499999
1.675 1.755 0.95499998
1.6950001 1.755 0.89499998
1.715 1.755 0.89499998
1.6849999 1.735 0.91500002
1.705 1.725 0.91500002
1.715 1.735 0.91500002
1.6849999 1.745 0.90499997
1.735 1.755 0.89499998
1.755 1.755 0.89499998
1.735 1.735 0.90499997
1.735 1.725 0.91500002
1.755 1.755 0.91500002
1.6950001 1.755 0.935
1.6950001 1.755 0.95499998
1.715 1.755 0.95499998
1.735 1.755 0.935
1.735 1.755 0.95499998
1.755 1.755 0.95499998
1.765 1.725 0.82499999
1.795 1.725 0.82499999
1.785 1.735 0.83499998
1.775 1.745 0.82499999
1.785 1.755 0.83499998
1.825 1.725 0.815
1.825 1.745 0.80500001
1.825 1.755 0.80500001
1.8049999 1.735 0.83499998
1.835 1.735 0.83499998
1.8150001 1.745 0.82499999
1.765 1.735 0.84500003
1.775 1.755 0.84500003
1.795 1.755 0.84500003
1.765 1.745 0.86500001
1.775 1.755 0.86500001
1.825 1.735 0.85500002
1.8150001 1.745 0.84500003
1.8049999 1.755 0.84500003
1.825 1.755 0.84500003
1.835 1.755 0.84500003
1.865 1.725 0.815
1.855 1.735 0.82499999
1.855 1.745 0.82499999
1.895 1.725 0.815
1.905 1.745 0.815
1.885 1.735 0.82499999
1.905 1.735 0.82499999
1.895 1.755 0.82499999
1.845 1.755 0.84500003
1.855 1.755 0.84500003
1.855 1.755 0.85500002
1.875 1.745 0.84500003
1.865 1.755 0.84500003
1.885 1.755 0.84500003
1.905 1.755 0.84500003
1.785 1.735 0.89499998
1.765 1.755 0.89499998
1.775 1.755 0.89499998
1.785 1.755 0.89499998
1.765 1.735 0.90499997
1.765 1.725 0.91500002
1.795 1.755 0.90499997
1.8150001 1.735 0.89499998
1.835 1.735 0.89499998
1.8049999 1.725 0.91500002
1.835 1.725 0.90499997
1.8150001 1.755 0.90499997
1.835 1.755 0.90499997
1.775 1.745 0.935
1.775 1.755 0.95499998
1.795 1.755 0.95499998
1.825 1.755 0.92500001
1.825 1.745 0.935
1.8150001 1.735 0.95499998
1.835 1.735 0.95499998
1.8150001 1.755 0.95499998
1.835 1.755 0.95499998
1.865 1.735 0.88499999
1.845 1.755 0.89499998
1.865 1.725 0.90499997
1.865 1.755 0.90499997
1.885 1.735 0.88499999
1.905 1.735 0.88499999
1.895 1.725 0.90499997
1.885 1.755 0.90499997
1.905 1.755 0.90499997
1.865 1.745 0.92500001
1.865 1.735 0.94499999
1.855 1.755 0.95499998
1.875 1.745 0.95499998
1.865 1.755 0.95499998
1.905 1.745 0.92500001
1.885 1.735 0.94499999
1.905 1.735 0.94499999
1.895 1.745 0.94499999
1.885 1.755 0.95499998
1.905 1.755 0.95499998
1.715 1.765 0.83499998
1.735 1.765 0.83499998
1.6950001 1.765 0.875
1.615 1.765 0.88499999
1.665 1.765 0.89499998
1.615 1.765 0.95499998
1.645 1.765 0.95499998
1.665 1.765 0.95499998
1.6950001 1.765 0.89499998
1.715 1.765 0.89499998
1.735 1.765 0.89499998
1.6950001 1.765 0.95499998
1.715 1.765 0.95499998
1.745 1.765 0.95499998
1.765 1.765 0.83499998
1.8150001 1.765 0.84500003
1.875 1.765 0.84500003
1.905 1.765 0.84500003
1.8150001 1.765 0.89499998
1.835 1.765 0.90499997
1.765 1.765 0.95499998
1.785 1.765 0.95499998
1.8150001 1.765 0.95499998
1.835 1.765 0.95499998
1.855 1.765 0.90499997
1.885 1.765 0.90499997
1.905 1.765 0.90499997
1.855 1.765 0.95499998
1.295 1.745 0.96499997
1.285 1.735 0.98500001
1.3150001 1.735 0.98500001
1.285 1.755 0.995
1.355 1.735 0.97500002
1.335 1.745 0.98500001
1.3049999 1.725 1.025
1.3150001 1.735 1.025
1.335 1.725 1.025
1.385 1.735 0.96499997
1.385 1.745 0.98500001
1.415 1.735 0.96499997
1.4349999 1.755 0.96499997
1.4349999 1.745 0.98500001
1.395 1.755 1.015
1.365 1.735 1.025
1.395 1.725 1.025
1.405 1.735 1.015
1.425 1.725 1.015
1.425 1.735 1.035
1.3049999 1.755 1.0549999
1.285 1.735 1.0650001
1.325 1.735 1.0549999
1.355 1.735 1.045
1.345 1.755 1.0549999
1.295 1.745 1.095
1.3049999 1.725 1.115
1.335 1.745 1.095
1.335 1.725 1.115
1.385 1.735 1.045
1.375 1.755 1.0549999
1.415 1.755 1.0549999
1.385 1.745 1.085
1.365 1.725 1.105
1.395 1.725 1.105
1.4349999 1.755 1.085
1.4349999 1.725 1.105
1.425 1.745 1.115
1.495 1.755 0.97500002
1.485 1.745 0.98500001
1.455 1.725 1.015
1.455 1.735 1.025
1.485 1.725 1.015
1.505 1.735 1.005
1.515 1.725 1.015
1.515 1.735 1.015
1.485 1.735 1.025
1.535 1.745 0.97500002
1.5549999 1.755 0.98500001
1.585 1.745 0.97500002
1.545 1.735 1.005
1.545 1.725 1.015
1.575 1.735 1.005
1.585 1.725 1.015
1.455 1.755 1.0549999
1.495 1.745 1.045
1.465 1.725 1.105
1.485 1.745 1.085
1.495 1.725 1.105
1.535 1.755 1.045
1.575 1.755 1.045
1.585 1.755 1.0549999
1.545 1.745 1.085
1.525 1.725 1.105
1.5549999 1.725 1.105
1.525 1.745 1.115
1.595 1.745 1.085
1.585 1.735 1.105
1.295 1.765 1.005
1.295 1.765 1.015
1.325 1.765 1.005
1.355 1.765 1.005
1.355 1.765 1.015
1.415 1.765 1.015
1.425 1.765 1.015
1.295 1.765 1.075
1.325 1.765 1.075
1.355 1.765 1.075
1.385 1.765 1.075
1.425 1.765 1.075
1.4450001 1.765 1.015
1.475 1.765 1.015
1.495 1.765 1.005
1.505 1.765 1.015
1.535 1.765 1.015
1.5650001 1.765 1.005
1.5650001 1.765 1.015
1.585 1.765 1.015
1.455 1.765 1.075
1.475 1.765 1.075
1.505 1.765 1.075
1.535 1.765 1.075
1.5650001 1.765 1.075
1.595 1.765 1.075
1.575 1.765 1.115
1.3049999 1.755 1.155
1.335 1.745 1.125
1.345 1.755 1.155
1.3150001 1.735 1.1950001
1.295 1.755 1.1950001
1.345 1.725 1.1950001
1.345 1.755 1.1950001
1.385 1.755 1.155
1.425 1.755 1.155
1.375 1.725 1.1950001
1.395 1.755 1.1950001
1.405 1.735 1.1950001
1.4349999 1.725 1.1950001
1.285 1.735 1.205
1.355 1.745 1.225
1.3150001 1.755 1.255
1.355 1.755 1.255
1.425 1.755 1.235
1.385 1.755 1.255
1.425 1.755 1.255
1.455 1.755 1.155
1.495 1.755 1.145
1.465 1.725 1.1950001
1.4450001 1.755 1.1950001
1.495 1.735 1.1950001
1.495 1.755 1.1950001
1.535 1.755 1.145
1.575 1.755 1.145
1.525 1.735 1.1950001
1.5549999 1.725 1.1849999
1.545 1.755 1.1950001
1.585 1.735 1.1849999
1.4450001 1.745 1.225
1.465 1.755 1.255
1.505 1.755 1.245
1.545 1.745 1.225
1.545 1.755 1.245
1.535 1.735 1.275
1.585 1.755 1.245
1.595 1.755 1.245
1.5650001 1.735 1.275
1.595 1.735 1.275
1.3049999 1.765 1.125
1.295 1.765 1.145
1.325 1.765 1.145
1.375 1.765 1.125
1.365 1.765 1.145
1.395 1.765 1.145
1.4349999 1.765 1.125
1.425 1.765 1.145
1.295 1.765 1.215
1.3150001 1.765 1.235
1.335 1.765 1.215
1.365 1.765 1.215
1.395 1.765 1.215
1.385 1.765 1.235
1.425 1.765 1.205
1.395 1.765 1.275
1.425 1.765 1.275
1.455 1.765 1.145
1.505 1.765 1.125
1.485 1.765 1.145
1.505 1.765 1.145
1.535 1.765 1.145
1.5650001 1.765 1.135
1.595 1.765 1.135
1.455 1.765 1.205
1.4450001 1.765 1.235
1.485 1.765 1.205
1.515 1.765 1.205
1.515 1.765 1.235
1.455 1.765 1.275
1.485 1.765 1.275
1.505 1.765 1.265
1.535 1.765 1.205
1.5650001 1.765 1.205
1.595 1.765 1.205
1.585 1.765 1.235
1.535 1.765 1.265
1.5650001 1.765 1.265
1.595 1.765 1.265
1.615 1.735 0.995
1.635 1.735 0.995
1.645 1.745 0.97500002
1.665 1.735 0.98500001
1.615 1.725 1.015
1.625 1.755 1.005
1.645 1.725 1.005
1.675 1.725 1.005
1.715 1.735 0.97500002
1.6950001 1.745 0.96499997
1.6849999 1.735 0.98500001
1.735 1.735 0.97500002
1.755 1.745 0.96499997
1.725 1.735 0.98500001
1.705 1.725 1.005
1.6849999 1.755 1.005
1.6849999 1.745 1.015
1.705 1.755 1.005
1.735 1.725 1.005
1.725 1.755 1.005
1.735 1.755 1.005
1.755 1.755 1.005
1.735 1.755 1.035
1.755 1.755 1.035
1.615 1.745 1.045
1.655 1.755 1.045
1.615 1.725 1.095
1.635 1.745 1.105
1.645 1.735 1.095
1.675 1.725 1.095
1.655 1.745 1.085
1.665 1.755 1.115
1.6950001 1.755 1.045
1.6849999 1.755 1.0650001
1.705 1.755 1.0650001
1.705 1.745 1.075
1.745 1.755 1.0549999
1.725 1.755 1.0650001
1.715 1.725 1.095
1.6849999 1.755 1.115
1.705 1.755 1.115
1.745 1.725 1.095
1.725 1.755 1.115
1.745 1.745 1.105
1.745 1.755 1.115
1.765 1.735 0.96499997
1.785 1.735 0.96499997
1.775 1.745 0.97500002
1.8150001 1.745 0.96499997
1.775 1.725 1.005
1.775 1.755 1.005
1.795 1.755 1.005
1.785 1.745 1.035
1.8049999 1.725 1.005
1.835 1.725 1.005
1.8150001 1.755 1.005
1.825 1.745 1.005
1.835 1.755 1.005
1.825 1.755 1.035
1.845 1.735 0.97500002
1.865 1.725 0.995
1.855 1.755 1.005
1.875 1.755 1.005
1.875 1.755 1.035
1.885 1.755 1.005
1.905 1.755 1.005
1.915 1.755 1.035
1.765 1.755 1.0549999
1.775 1.755 1.0549999
1.795 1.755 1.0549999
1.765 1.745 1.075
1.8150001 1.755 1.0549999
1.825 1.755 1.045
1.835 1.755 1.0549999
1.825 1.745 1.075
1.775 1.725 1.095
1.765 1.755 1.115
1.785 1.755 1.115
1.8049999 1.725 1.095
1.8049999 1.755 1.115
1.8150001 1.755 1.115
1.835 1.755 1.105
1.855 1.755 1.0549999
1.875 1.755 1.0549999
1.895 1.755 1.0549999
1.905 1.755 1.0549999
1.895 1.755 1.0650001
1.885 1.745 1.075
1.845 1.725 1.095
1.875 1.735 1.085
1.865 1.735 1.095
1.855 1.755 1.105
1.875 1.755 1.105
1.895 1.755 1.105
1.915 1.755 1.105
1.635 1.765 0.995
1.615 1.765 1.015
1.645 1.765 1.015
1.665 1.765 1.015
1.705 1.765 0.995
1.6950001 1.765 1.015
1.715 1.765 1.015
1.745 1.765 1.015
1.615 1.765 1.075
1.645 1.765 1.075
1.665 1.765 1.075
1.645 1.765 1.115
1.6950001 1.765 1.075
1.725 1.765 1.075
1.745 1.765 1.075
1.725 1.765 1.115
1.785 1.765 0.98500001
1.765 1.765 1.015
1.785 1.765 1.015
1.8150001 1.765 1.015
1.835 1.765 1.015
1.865 1.765 0.97500002
1.885 1.765 0.96499997
1.905 1.765 0.96499997
1.855 1.765 1.015
1.885 1.765 1.015
1.905 1.765 1.015
1.765 1.765 1.075
1.795 1.765 1.075
1.8150001 1.765 1.075
1.835 1.765 1.075
1.795 1.765 1.105
1.865 1.765 1.075
1.885 1.765 1.075
1.905 1.765 1.075
1.885 1.765 1.105
1.625 1.755 1.145
1.665 1.755 1.145
1.615 1.725 1.1849999
1.605 1.755 1.1950001
1.665 1.755 1.165
1.655 1.735 1.1849999
1.655 1.755 1.1950001
1.705 1.755 1.145
1.745 1.755 1.145
1.6849999 1.755 1.165
1.705 1.755 1.165
1.6849999 1.725 1.1849999
1.715 1.725 1.1849999
1.715 1.755 1.1950001
1.725 1.755 1.165
1.745 1.755 1.165
1.745 1.725 1.1849999
1.655 1.745 1.215
1.665 1.755 1.225
1.625 1.755 1.245
1.625 1.735 1.275
1.665 1.755 1.245
1.655 1.735 1.275
1.675 1.755 1.275
1.6849999 1.755 1.225
1.705 1.755 1.225
1.725 1.755 1.215
1.745 1.755 1.215
1.705 1.755 1.245
1.6849999 1.735 1.275
1.715 1.735 1.275
1.6950001 1.755 1.275
1.705 1.755 1.275
1.755 1.755 1.245
1.755 1.735 1.275
1.725 1.755 1.275
1.745 1.755 1.275
1.785 1.755 1.145
1.835 1.755 1.145
1.765 1.755 1.165
1.775 1.745 1.175
1.785 1.755 1.165
1.775 1.735 1.1849999
1.775 1.755 1.1950001
1.8049999 1.755 1.165
1.825 1.755 1.165
1.835 1.755 1.165
1.8150001 1.735 1.1849999
1.835 1.745 1.1950001
1.875 1.755 1.145
1.895 1.755 1.155
1.915 1.755 1.155
1.855 1.755 1.165
1.875 1.755 1.165
1.845 1.725 1.1849999
1.875 1.735 1.1849999
1.895 1.755 1.1950001
1.775 1.745 1.215
1.765 1.755 1.215
1.785 1.755 1.215
1.8049999 1.755 1.215
1.825 1.745 1.205
1.825 1.755 1.215
1.775 1.755 1.245
1.795 1.755 1.245
1.785 1.735 1.275
1.765 1.755 1.275
1.785 1.755 1.265
1.835 1.755 1.245
1.8150001 1.735 1.275
1.8049999 1.755 1.265
1.825 1.755 1.265
1.845 1.755 1.215
1.855 1.755 1.215
1.875 1.755 1.215
1.895 1.745 1.215
1.895 1.755 1.215
1.915 1.755 1.215
1.845 1.735 1.275
1.845 1.755 1.265
1.865 1.755 1.265
1.875 1.755 1.265
1.885 1.755 1.245
1.885 1.735 1.275
1.895 1.755 1.265
1.915 1.755 1.265
1.615 1.765 1.135
1.645 1.765 1.135
1.665 1.765 1.135
1.615 1.765 1.1950001
1.645 1.765 1.1950001
1.665 1.765 1.1950001
1.6950001 1.765 1.135
1.715 1.765 1.135
1.745 1.765 1.135
1.6950001 1.765 1.1950001
1.725 1.765 1.1950001
1.745 1.765 1.1950001
1.665 1.765 1.235
1.625 1.765 1.265
1.675 1.765 1.255
1.645 1.765 1.265
1.735 1.765 1.235
1.6950001 1.765 1.255
1.725 1.765 1.255
1.745 1.765 1.255
1.765 1.765 1.135
1.795 1.765 1.135
1.8150001 1.765 1.135
1.835 1.765 1.135
1.765 1.765 1.1950001
1.795 1.765 1.1950001
1.8150001 1.765 1.1950001
1.835 1.765 1.1950001
1.865 1.765 1.135
1.885 1.765 1.135
1.905 1.765 1.135
1.865 1.765 1.1849999
1.885 1.765 1.1849999
1.905 1.765 1.1849999
1.8150001 1.765 1.235
1.775 1.765 1.255
1.795 1.765 1.255
1.8150001 1.765 1.245
1.895 1.765 1.235
1.845 1.765 1.245
1.865 1.765 1.245
1.885 1.765 1.245
1.905 1.765 1.245
1.925 1.735 0.65499997
1.9450001 1.735 0.65499997
1.955 1.745 0.66500002
1.9450001 1.755 0.67500001
1.965 1.735 0.64499998
1.985 1.735 0.64499998
1.965 1.755 0.67500001
1.985 1.755 0.67500001
1.925 1.735 0.70499998
1.9450001 1.735 0.70499998
1.925 1.745 0.71499997
1.925 1.755 0.71499997
1.9450001 1.745 0.70499998
1.965 1.735 0.70499998
1.995 1.735 0.70499998
1.975 1.745 0.71499997
1.985 1.745 0.70499998
1.995 1.745 0.71499997
2.0150001 1.735 0.64499998
2.0350001 1.735 0.64499998
2.0050001 1.755 0.67500001
2.0550001 1.735 0.64499998
2.075 1.735 0.64499998
2.0250001 1.755 0.685
2.0350001 1.745 0.69499999
2.0150001 1.735 0.70499998
2.0050001 1.755 0.70499998
2.0550001 1.735 0.69499999
2.075 1.735 0.69499999
2.0450001 1.755 0.685
2.0550001 1.755 0.685
2.0650001 1.755 0.685
2.075 1.755 0.685
2.0550001 1.735 0.70499998
2.0550001 1.745 0.70499998
1.925 1.735 0.72500002
1.9349999 1.755 0.73500001
1.9450001 1.755 0.73500001
1.955 1.755 0.73500001
1.965 1.755 0.73500001
1.975 1.755 0.73500001
1.985 1.755 0.73500001
1.975 1.735 0.755
1.995 1.735 0.755
1.925 1.735 0.76499999
1.9450001 1.735 0.76499999
1.9349999 1.755 0.79500002
1.9450001 1.755 0.79500002
1.955 1.755 0.79500002
1.975 1.735 0.76499999
1.965 1.755 0.79500002
1.975 1.755 0.79500002
1.995 1.755 0.79500002
2.0050001 1.755 0.73500001
2.0250001 1.755 0.73500001
2.0150001 1.735 0.755
2.0350001 1.735 0.755
2.0550001 1.755 0.72500002
2.0450001 1.755 0.73500001
2.0550001 1.755 0.73500001
2.075 1.755 0.73500001
2.0550001 1.735 0.755
2.0450001 1.755 0.745
2.0650001 1.755 0.745
2.075 1.755 0.745
2.0050001 1.755 0.79500002
2.0250001 1.755 0.79500002
2.0450001 1.745 0.79500002
2.0450001 1.755 0.79500002
2.0550001 1.755 0.79500002
2.0650001 1.755 0.79500002
2.075 1.755 0.79500002
2.095 1.735 0.64499998
2.115 1.735 0.64499998
2.155 1.755 0.67500001
2.095 1.735 0.69499999
2.115 1.735 0.69499999
2.085 1.755 0.685
2.095 1.755 0.685
2.085 1.745 0.69499999
2.095 1.755 0.69499999
2.105 1.755 0.685
2.115 1.755 0.685
2.135 1.735 0.69499999
2.135 1.745 0.685
2.125 1.755 0.685
2.135 1.755 0.685
2.125 1.745 0.69499999
2.145 1.755 0.69499999
2.1949999 1.735 0.67500001
2.175 1.755 0.67500001
2.2349999 1.745 0.65499997
2.2349999 1.745 0.66500002
2.2349999 1.755 0.66500002
2.2349999 1.745 0.67500001
2.2349999 1.755 0.67500001
2.175 1.735 0.685
2.1949999 1.735 0.685
2.165 1.755 0.69499999
2.1849999 1.745 0.685
2.1949999 1.745 0.685
2.1949999 1.755 0.685
2.1849999 1.755 0.69499999
