# .PCD v0.7 - Point Cloud Data file format
VERSION 0.7
FIELDS x y z
SIZE 4 4 4
TYPE F F F
COUNT 1 1 1
WIDTH 1497
HEIGHT 1
VIEWPOINT 0 0 0 1 0 0 0
POINTS 1497
DATA ascii
0.68272138 0.89113235 0.60672343
-0.37575114 0.90433437 0.60891688
-0.47686955 0.94939089 0.60233653
-0.20002739 0.95755303 0.60823172
-0.45664734 0.97988975 0.6034739
-0.0680646 0.97388834 0.6098932
0.36891007 0.97887212 0.60820723
0.38800132 0.9724679 0.60983443
0.4100605 0.98890102 0.60563958
-0.1649231 0.99460471 0.60993838
0.30705446 1.0202869 0.60523832
-0.19801658 1.0342388 0.60876071
0.061594695 1.0351423 0.6087985
0.10365489 1.0441267 0.60945499
0.39383999 1.0541116 0.60855031
-0.15425548 1.0662291 0.60461771
0.29313838 1.1113364 0.60252053
-0.20726886 1.1244626 0.60046899
-5.0637331 1.8217794 0.60637176
-5.1167045 1.8702688 0.60025692
-5.2796669 1.8847922 0.60885322
-4.8687873 1.9767618 0.60639906
-5.1632347 2.02355 0.60920233
-5.0951629 2.0210023 0.60599047
-4.6691184 2.0235865 0.60456759
-5.1941366 2.0983741 0.60307026
-5.4102387 2.1305215 0.60244215
-4.7157583 2.2302768 0.60408843
-4.7785325 2.2402592 0.60093057
-5.1150174 2.2745669 0.60422552
-5.1677556 2.2879744 0.60697865
4.1591034 3.2090712 0.60504603
3.929379 3.2160647 0.60618508
3.996299 3.2185659 0.60634387
3.8930788 3.2288539 0.60804129
3.834635 3.3274426 0.60506421
4.192893 3.3477719 0.60192013
3.7194605 3.3556526 0.60468483
4.4113479 3.3632178 0.60647523
4.2704048 3.4044044 0.60825706
3.494689 3.4214261 0.60471416
4.5435534 3.5751791 0.60148644
3.3579788 3.6123335 0.60532856
4.4989362 3.6393962 0.60749853
4.4962106 3.6791928 0.60957569
-2.5081947 3.7161465 0.60240507
-2.2248397 3.7277522 0.60881495
3.4771242 3.723475 0.60149193
-1.4915894 3.7668366 0.60755998
-2.330801 3.7906706 0.60557973
3.3495631 3.7932391 0.60911632
-2.4068565 3.8182952 0.60556996
4.5107231 3.8941052 0.60431385
-1.3773295 3.9278114 0.60627329
3.3860569 3.9801183 0.60159028
-1.4303215 4.0046825 0.60428888
4.486836 4.0214705 0.60615194
4.434329 4.0381045 0.60011113
-1.5062244 4.0642924 0.60302287
3.6392856 4.0774183 0.60199261
-1.5676396 4.089355 0.60184455
3.7734752 4.1075792 0.603158
3.5851636 4.1125803 0.60063267
3.8499153 4.1172018 0.60869247
3.7421935 4.1484771 0.60587394
3.9532745 4.151495 0.60824764
3.7589083 4.1727939 0.60810661
-1.4248588 4.2452974 0.60133541
-1.6109314 4.3159466 0.60515809
-2.2799597 4.3502698 0.60485482
-1.5384327 4.3800082 0.60409254
-2.2252154 4.4192839 0.60303748
-2.3443027 4.4369211 0.60169315
-2.2992685 4.4365101 0.60913622
-1.7750776 4.5441122 0.60645843
-1.7556286 4.5454478 0.60508621
-1.9925458 4.5624676 0.60626984
-1.9842694 4.5720158 0.6093632
-5.2054052 5.7502747 0.60836864
1.931843 5.7856836 0.60719538
2.2197826 5.8331451 0.60131085
1.9149672 5.840857 0.60023081
2.1665597 5.8522644 0.60952806
2.113472 5.8861513 0.60793853
1.8994591 5.9072089 0.60650396
1.6496164 5.9541841 0.6016587
-4.950285 5.9653282 0.6012423
2.3141 5.979197 0.60986429
2.0713379 6.0303841 0.60039878
1.8476815 6.1128092 0.60798264
-5.1863875 6.1605148 0.60813558
1.8898406 6.2213511 0.60583961
-5.0152922 6.2522411 0.60530293
1.9935418 6.2562585 0.60063612
-5.0971789 6.2789512 0.60188377
-4.6923695 6.2797747 0.60326684
1.9570175 6.2849221 0.6057663
7.0398898 6.8432097 0.60374415
6.9218979 6.8667173 0.60702777
7.3653445 6.8867083 0.60175896
6.9821148 6.9486804 0.60264516
7.37363 7.0508046 0.60712063
7.3518391 7.0703139 0.60347509
6.8154712 7.0981507 0.60850477
7.2849903 7.1105533 0.60438406
6.9107904 7.1239548 0.60482216
6.954566 7.2050409 0.60952014
6.9823675 7.2078638 0.60970569
7.0081673 7.3092837 0.60171187
0.95327371 -6.9884572 0.61088896
1.0314302 -6.9740181 0.61870062
1.252324 -6.9703398 0.61646533
0.90927851 -6.9423523 0.61212218
1.2478757 -6.9175053 0.61680317
-6.8113389 -6.7745008 0.61236024
-6.5928125 -6.7610841 0.61445606
1.2494307 -6.6559539 0.61992228
1.0642569 -6.5581837 0.61469424
-6.7241158 -6.5321054 0.61581635
1.2610838 -6.5008316 0.61113977
0.89025128 -6.4890389 0.61887336
0.78389877 -6.4703455 0.61063111
1.128206 -6.4580574 0.61489928
-7.1478224 -6.4219871 0.61004448
-6.4042611 -6.3836274 0.61418164
-6.7952209 -6.3671446 0.61695051
-6.6704741 -6.2460766 0.61038291
-6.7599301 -6.2320509 0.61064088
-2.0322225 -6.1799898 0.61422825
-2.2764282 -6.125216 0.61415553
-2.3576336 -6.0899386 0.61727571
-1.8824294 -5.9588137 0.61779809
-1.7705377 -5.7526011 0.61501837
-2.3068094 -5.7305775 0.61021256
-1.7412157 -5.667244 0.61267602
3.6199903 -5.0621195 0.61782956
3.6756651 -5.0388432 0.61198807
3.5565922 -5.0121469 0.61773491
3.6638074 -5.0084658 0.61324668
3.9669485 -4.9904022 0.61784148
3.4080722 -4.9726276 0.61049366
3.9862356 -4.97967 0.6192348
3.4011121 -4.9509487 0.61738551
3.3712492 -4.8859911 0.61091387
3.1805682 -4.8539524 0.61087221
3.9803424 -4.8269134 0.61638153
4.1440601 -4.8024545 0.61310601
4.0893397 -4.7628675 0.61008728
4.0255556 -4.6608534 0.61829352
2.9953423 -4.64536 0.61253154
2.9750626 -4.5673923 0.61102247
4.0334649 -4.5110435 0.61645484
4.143836 -4.4053092 0.6181879
3.3354318 -4.2957177 0.61138749
3.9775519 -4.2602386 0.61983705
4.0422559 -4.2462263 0.61907029
0.0054714084 -4.1904821 0.6182577
3.0020049 -4.1942601 0.61506915
0.0044045746 -4.1299734 0.61523783
3.4091697 -4.1200237 0.61245513
3.7533917 -4.0934458 0.61667097
-0.25360268 -4.0837145 0.61405969
3.1550636 -4.0663867 0.61370707
3.783067 -4.0436511 0.61423898
3.2878881 -4.0019398 0.61214626
-0.21637231 -3.9870155 0.61635566
3.7292233 -3.9737797 0.61600727
-0.30154705 -3.9110367 0.61580884
0.11695465 -3.6346672 0.61315942
-0.16830349 -3.6287751 0.61937904
-5.1259875 -2.4271669 0.61038888
-5.0298142 -2.4042683 0.612544
-5.0502853 -2.380929 0.61732173
-5.3358369 -2.351387 0.61710799
-4.6727757 -2.2666907 0.61133015
-5.4361401 -2.2324362 0.6115979
-4.6810451 -2.0960951 0.61991739
6.396986 -2.0904346 0.61920309
-5.5291638 -2.0666194 0.61129916
5.9207935 -2.0208716 0.6162647
5.9404445 -2.0248725 0.61803395
-5.5289559 -1.9891371 0.61309958
-5.5713491 -1.9293247 0.61499381
6.3514233 -1.882454 0.61549759
6.192277 -1.8340387 0.61013627
5.8131504 -1.7860911 0.61299479
-5.5253778 -1.7713346 0.61955082
-5.6223087 -1.7045875 0.61926794
5.7504978 -1.6569366 0.61140072
-5.3310261 -1.648163 0.61725771
-4.5946922 -1.6416509 0.61831522
-5.2469292 -1.574304 0.61711407
-4.526123 -1.5365319 0.61586237
-4.7098436 -1.4837111 0.61915863
-5.0782075 -1.3893087 0.6192677
0.25315011 -0.85392678 0.61724794
-0.38254508 -0.84992814 0.61430454
-0.35604548 -0.81584144 0.61749053
0.2758854 -0.8123582 0.6162585
-0.52417552 -0.66530317 0.61076564
-0.71728742 -0.65328449 0.61446804
0.8443976 -0.65898776 0.61436522
0.87507302 -0.37693039 0.61780286
-0.99497151 -0.36667442 0.61051214
-0.98415798 -0.28111708 0.61118102
0.81169176 -0.27743173 0.61526883
-0.85895854 0.014896989 0.61144197
1.1190611 0.10317093 0.61527181
-0.99406165 0.16310032 0.61010325
-0.8338179 0.16765732 0.61801118
0.99323928 0.18243203 0.61965257
-1.0318445 0.45766824 0.61408401
0.86864442 0.46367803 0.61066353
0.76380783 0.66641021 0.61128461
0.86011964 0.78776264 0.61001897
0.71594852 0.8116672 0.61382961
0.51760864 0.84613955 0.61149335
-0.78975993 0.89564365 0.61791921
-0.50625229 0.89364576 0.61083639
0.32525599 0.9679805 0.6115979
-0.2439824 0.97714555 0.61118394
0.55801195 0.98036653 0.61966753
0.15974459 0.99944317 0.61095166
0.038080901 1.0240883 0.61121893
0.055447832 1.0457671 0.61673844
-0.3340345 1.055853 0.61513078
0.37295115 1.0600024 0.61839581
-0.30470982 1.0889728 0.61658025
0.26219499 1.0838653 0.61144114
-4.8742943 1.8311565 0.61812609
-5.2635651 1.9517469 0.61579925
-4.8197761 1.9836146 0.61402047
-4.7106776 2.0662596 0.61990154
-4.6041927 2.1332364 0.61655509
-5.2834506 2.1570663 0.61233449
-4.7885561 2.2590978 0.61506313
-4.6334581 2.2553036 0.61286122
-4.9910846 2.323977 0.61734116
3.7917984 3.3740163 0.61577439
3.7789125 3.3901062 0.61749601
4.6492295 3.4599102 0.61550951
3.453546 3.4838717 0.61355746
4.3975811 3.4801927 0.61044431
3.4990997 3.4945388 0.61871624
-2.3392458 3.6292224 0.61915958
-1.6126461 3.6495109 0.61472654
-1.9318706 3.6924031 0.61932802
4.4442477 3.722188 0.61864567
-2.3579895 3.7749505 0.61819446
-1.6005201 3.8079765 0.61939257
4.6449189 3.8068538 0.61177903
4.3749089 3.8378706 0.61108685
-2.2877417 3.8479025 0.61943769
3.5683002 3.8740315 0.61326098
-1.4876258 3.8804584 0.6109736
3.6276307 3.901104 0.61543345
4.393024 3.96491 0.61427283
4.5585384 3.9620836 0.61203009
3.5242095 4.0108271 0.61983538
4.2533612 4.0179572 0.61481929
-1.4588829 4.0665274 0.61823469
3.5828245 4.0768285 0.61969125
4.3156443 4.0792589 0.61243868
4.0964079 4.1196494 0.61572325
3.9728749 4.1301227 0.61264145
3.900806 4.1559415 0.61214638
4.0837145 4.1712604 0.61483192
4.2801147 4.1900439 0.61136878
-2.3336177 4.2229886 0.61298025
-1.4555924 4.2546711 0.61172438
-1.5364577 4.3286266 0.61529672
-2.4314835 4.3765082 0.61483741
-2.5044889 4.3926477 0.61419868
-1.7507437 4.4209623 0.61205471
-2.3082023 4.4391427 0.61970276
-2.3696251 4.456583 0.61666453
-2.1549325 4.500843 0.61742926
-1.6215618 4.5667429 0.61298454
-1.7469361 4.5720048 0.61689365
-2.1260962 4.5870543 0.61810005
-2.0121903 4.5824323 0.61308491
-4.7061706 5.8042789 0.61702478
-5.2037034 5.8569894 0.61899972
2.1476626 5.8597465 0.61779463
-5.2447729 5.8614464 0.61123776
-5.1052308 5.8623652 0.61637664
-5.0276546 5.8667641 0.61189747
-5.0233674 5.8790569 0.61824465
2.1525226 5.8810592 0.61465031
-5.2475948 5.9086657 0.61024022
-4.7446032 5.9038386 0.61409152
2.2936289 5.9018679 0.61207473
-5.1206255 5.9169254 0.61045843
-4.9575548 6.0293112 0.61381721
1.8201513 6.0625186 0.61621565
-4.6061225 6.1067209 0.61888921
2.1182828 6.106935 0.61704528
-4.8093867 6.112886 0.6171875
-4.6967254 6.1280904 0.61674654
-5.1018639 6.1539478 0.61856019
2.4063518 6.1557775 0.6196062
2.3272426 6.1837506 0.6144017
-5.0933838 6.194427 0.61402047
-5.11059 6.2624278 0.6181407
-4.7258735 6.2643237 0.61049199
-4.821352 6.2850385 0.61499178
-4.939024 6.2956238 0.61036253
-5.1141996 6.3070574 0.61254072
2.1209722 6.3281732 0.61669505
-5.0565891 6.3361177 0.61477661
6.9134598 6.8759685 0.61341184
6.9762025 6.8768344 0.61704576
7.0403361 6.9008551 0.61837995
7.2514715 6.9351764 0.61996388
7.2903562 6.9329853 0.61060619
7.2796602 6.9504795 0.61160684
6.7314563 6.9811563 0.61375856
6.5626783 7.0961256 0.61434865
7.2620525 7.1059299 0.61069584
7.2432413 7.1200113 0.61781645
7.2137003 7.1445146 0.61692846
7.0573902 7.1704206 0.61198664
7.0730109 7.2184644 0.61854219
6.7568774 7.2220716 0.61337805
6.7053738 7.2325439 0.6165303
7.013586 7.2518506 0.61601353
6.8939705 7.2770948 0.61754596
6.9191895 7.2765479 0.61915326
0.98142546 -7.0143652 0.62544489
1.1056999 -6.9525733 0.62919247
-6.8448782 -6.8003349 0.6285423
-7.023222 -6.7592926 0.62795186
-6.7077756 -6.7502298 0.62433517
-7.0618711 -6.7341609 0.62575817
-7.1151872 -6.6268587 0.62822568
-7.0521126 -6.5567999 0.62372577
-7.0821466 -6.5448861 0.62282252
-6.4353347 -6.4684577 0.62732303
1.1867419 -6.4370122 0.62699211
-7.0269518 -6.392035 0.62778401
-7.0496793 -6.3766108 0.62613297
-6.4243035 -6.3734403 0.62057829
-2.1775947 -6.1663518 0.62236369
-1.9729922 -6.1617332 0.62549341
-1.9355403 -6.1590667 0.62951434
-1.7674569 -6.1369767 0.62073874
-2.2696631 -6.1031146 0.6208992
-2.3728545 -6.0385985 0.62812197
-2.2263923 -5.9707456 0.6253444
-2.3275061 -5.9677267 0.62911689
-2.1695759 -5.9410686 0.62214839
-1.9850492 -5.8410139 0.62978709
-1.8935345 -5.7050743 0.62179768
-1.8187052 -5.6478429 0.62887108
-2.0111146 -5.6291533 0.62115765
3.8104007 -5.0566688 0.62033784
3.4461322 -5.0396075 0.62516379
3.876066 -5.022161 0.62362444
3.8071911 -5.0091052 0.62241566
3.6288331 -4.9829097 0.62648845
3.496047 -4.9731326 0.62113953
3.921916 -4.9636545 0.62081528
3.928884 -4.9274302 0.62244761
3.3419428 -4.9028883 0.62054157
4.0694561 -4.7880836 0.62485206
3.2549851 -4.7253752 0.62884021
3.1957059 -4.6102896 0.62783015
4.1430874 -4.6157579 0.62356043
3.1664963 -4.6019807 0.62987989
4.1941237 -4.601748 0.62987965
4.0083251 -4.5348172 0.62082374
4.1861401 -4.4886146 0.62508571
2.933331 -4.4132214 0.62345052
3.1593952 -4.3579473 0.62167388
4.0789504 -4.3519239 0.62872267
3.9563022 -4.324791 0.62333381
3.9904695 -4.2872119 0.62054765
4.2044539 -4.2839479 0.62323457
3.894166 -4.2702303 0.62591004
3.9895725 -4.2321005 0.62079453
0.14317787 -4.1654449 0.62765658
4.0650048 -4.1154871 0.62509871
0.24914201 -4.1067615 0.62634891
3.3897994 -4.0730963 0.62860501
0.35571745 -4.0337129 0.62707078
3.3932757 -4.0256901 0.62019598
3.5304723 -4.0105834 0.62027395
3.4596624 -3.9744525 0.62447274
0.34982568 -3.9641278 0.62203628
3.6632903 -3.9670386 0.62536836
0.3986637 -3.9349208 0.62563556
0.4013747 -3.8411002 0.62007427
0.34400028 -3.7367456 0.62726313
0.062216014 -3.640425 0.62401891
-0.068065129 -3.6369431 0.62811017
0.029937088 -3.6270595 0.62033868
0.12388808 -3.6275921 0.62092149
-4.886395 -2.3626373 0.62702501
-4.6393461 -2.3221571 0.62599671
-5.3215537 -2.2739158 0.62169695
5.8803401 -2.1970201 0.62976491
-4.7431445 -2.1884217 0.62305093
5.8338461 -2.1836059 0.6202352
-5.6554871 -2.1362126 0.62967229
5.9410071 -2.12466 0.62571061
5.9783363 -2.1135371 0.62485671
-4.4045944 -2.0558386 0.62784028
-4.3547077 -1.9143955 0.62871885
5.9286189 -1.9026718 0.62209606
-5.3789439 -1.8218718 0.62038481
6.273808 -1.736361 0.62349272
5.6659155 -1.7135174 0.62875295
6.0188751 -1.6707655 0.62242973
6.1997843 -1.6713547 0.62389779
-5.5474205 -1.6388879 0.62901831
-5.2370648 -1.5715725 0.6261133
-4.5417509 -1.5111735 0.62281233
-5.2210636 -1.4980805 0.629655
-5.044323 -1.4573202 0.62594211
-4.8128104 -1.4395809 0.62152505
-4.7721744 -1.4137772 0.62099367
-4.7008953 -1.4174819 0.62543011
-5.1129017 -1.3952098 0.62714148
0.037421644 -0.87470567 0.62066865
0.091371655 -0.86660194 0.62703979
0.1736773 -0.82436258 0.62051964
-0.33099723 -0.80467892 0.62319195
0.33447808 -0.79536319 0.62618077
-0.51863849 -0.68977493 0.62100345
0.4997676 -0.643103 0.62870193
0.841483 -0.60579574 0.62028402
1.0404072 -0.43079913 0.62381095
-1.0492053 -0.38577661 0.62798011
0.98559105 -0.38057524 0.62232357
-0.76943064 -0.33097953 0.62278777
0.79732871 -0.33724394 0.62203813
-0.96050102 -0.27366334 0.62259591
0.97483629 -0.0931786 0.62259585
1.1315999 0.12233973 0.62827754
0.88000172 0.17704543 0.62001622
0.79949355 0.28245002 0.62929761
-0.76579112 0.44461098 0.62271947
0.79565936 0.6057837 0.6208874
-0.9172979 0.63609749 0.62077808
0.61381328 0.66740638 0.62110162
0.65794992 0.6977002 0.62117159
0.64575577 0.71723938 0.62819588
0.62563378 0.74433357 0.62726855
0.8725574 0.79824024 0.62644482
-0.52322614 0.84570396 0.62082744
-0.76109135 0.90210021 0.62865937
-0.30291682 0.97367907 0.62517428
-0.20242918 1.0650849 0.62202644
0.20307612 1.1034188 0.62345123
-4.7395892 1.8386002 0.62332892
-4.9192638 1.859764 0.62565041
-5.2714 1.888752 0.62803125
-4.8673248 1.8875945 0.62253082
-4.7874756 1.8948331 0.62025094
-4.7845526 1.9560785 0.62423849
-4.9366078 2.0257981 0.62533593
-5.0926418 2.0460107 0.6288873
-5.1893444 2.2581615 0.6233089
-4.9832339 2.2787156 0.6222707
-5.2203007 2.2846537 0.62283659
-5.0209455 2.304533 0.62388253
-5.1414475 2.314558 0.62104356
-4.8902311 2.3726008 0.62746024
4.0161376 3.203485 0.62042969
4.1115551 3.2210488 0.62663603
4.019053 3.2428317 0.62784415
4.3076787 3.2904732 0.62010527
3.8446441 3.3382721 0.62530339
3.5992064 3.3916068 0.62817585
3.7205892 3.4426758 0.62807059
3.4077671 3.4659104 0.62154865
3.5773394 3.4620783 0.62464154
-2.3069119 3.5858862 0.62725496
4.4775772 3.5844727 0.62901205
3.5740895 3.5958908 0.62165952
-1.8939074 3.6240292 0.62156814
-1.9671959 3.6487112 0.62453896
-1.9350603 3.6403646 0.6229732
3.6522546 3.67624 0.62234581
4.4754086 3.6844335 0.62665153
3.4293203 3.760047 0.62991655
4.4866009 3.778964 0.62857866
-2.5047956 3.7954659 0.62878585
-2.2978632 3.7923014 0.62621057
3.6243277 3.7924843 0.62214708
-2.4105318 3.8540635 0.62517756
4.4627361 3.8718925 0.62060881
4.3946157 3.9093194 0.62133849
-1.2784604 3.948391 0.62851071
-2.6040335 3.9871254 0.62323093
-1.5160996 3.9876442 0.62645006
3.5787499 3.9825482 0.62181354
4.1668568 4.0007567 0.62246585
-2.4488215 4.0366254 0.62955177
4.232192 4.0487256 0.62752414
-1.5202928 4.0630722 0.62747747
4.2805672 4.0614948 0.6203922
3.770499 4.149714 0.62719929
-1.6822481 4.2018619 0.62344456
-1.3946383 4.2817369 0.62659132
-1.5379705 4.290134 0.6202333
-2.3676555 4.5076604 0.62446058
-1.9654409 4.5336022 0.62883782
-1.9175369 4.5584407 0.62443161
-1.7261717 4.561048 0.62377608
-5.0861583 5.8602605 0.62696254
-4.9192066 5.895874 0.62569022
-5.2308955 5.9132142 0.62228113
-4.6624393 5.9409513 0.62322497
-5.1048107 5.9728923 0.62397182
-5.2847905 5.9888935 0.62003839
1.6884874 6.0681109 0.62121701
1.5714808 6.109024 0.62178957
1.8519495 6.114553 0.62799168
1.9029239 6.1298742 0.62946963
1.6652427 6.2126651 0.62656951
-4.8999596 6.2777352 0.62224013
2.0872428 6.2712049 0.62313616
1.9005638 6.2805729 0.62218022
2.0000465 6.2810888 0.62779546
1.8714249 6.2909927 0.62504947
2.0210152 6.3151884 0.62862551
-5.2147837 6.3232584 0.62580037
7.0460615 6.9148054 0.62414861
7.2371836 6.9514713 0.62164795
7.2450967 6.9600511 0.62648749
7.1774936 7.1484528 0.62087584
6.6732693 7.1901379 0.62536323
6.6059499 7.2394509 0.62034082
7.0890226 7.2417035 0.62794352
7.0010419 7.2873969 0.62233543
6.7978301 7.3227506 0.62821126
7.0487361 7.3260713 0.62903345
6.8192539 7.3300653 0.62330091
1.0016118 -6.9570141 0.6305486
0.909958 -6.9401731 0.63162577
1.1940176 -6.9356499 0.63429439
0.89228493 -6.8725867 0.63684022
-6.8908873 -6.7708731 0.63295603
-6.5788202 -6.7765732 0.63086307
1.3105633 -6.7724662 0.63655472
-7.0046301 -6.7672911 0.63178265
-6.7381949 -6.7378302 0.63368034
-6.9596224 -6.7265868 0.63370514
-7.011416 -6.7109461 0.63424802
0.77884829 -6.6520696 0.63504207
1.1092539 -6.6571751 0.6379987
0.6209836 -6.6337609 0.63509595
0.89085257 -6.6284075 0.63198817
-6.3977337 -6.6007519 0.6336869
1.2783573 -6.5849185 0.63674951
-7.0912385 -6.5732718 0.63408756
-7.0524421 -6.5114579 0.63045108
-6.6457782 -6.47504 0.63925624
-6.9951463 -6.4478745 0.63291228
1.1108718 -6.4460258 0.63271105
-6.8882151 -6.3983569 0.63630331
-6.8411918 -6.3068981 0.63791323
-6.5016537 -6.2769642 0.63595748
-6.8026252 -6.2513905 0.63564867
-2.1140425 -6.2495685 0.6340127
-6.8701463 -6.2358899 0.63255012
-6.815351 -6.2178063 0.6383388
-2.0926833 -6.1951232 0.63897681
-2.3075101 -6.1744127 0.63027704
-1.802598 -6.1041603 0.63228273
-2.3336511 -5.8929138 0.63249683
-2.0815949 -5.8587112 0.63936448
-2.3006825 -5.8479929 0.63539767
-2.0515363 -5.6848283 0.63494873
3.4006274 -5.0637407 0.63086212
3.6456473 -5.0522771 0.63200229
3.6414216 -5.0424504 0.63426912
3.8431635 -5.0206861 0.63862097
3.5304763 -4.9823017 0.63527119
3.2497783 -4.9474015 0.6321528
4.0054288 -4.931663 0.63909686
4.1315331 -4.7773876 0.63586915
4.034749 -4.758245 0.63122797
4.1547384 -4.7512622 0.63261068
2.9880276 -4.7284713 0.63366508
4.0840907 -4.6451874 0.63711858
4.1583576 -4.6499028 0.63173354
3.9735897 -4.5506692 0.6377492
4.1057878 -4.4524856 0.63828254
2.9347818 -4.4470382 0.63077164
4.0570354 -4.4477186 0.63114941
4.0602455 -4.4063787 0.63487971
3.2820373 -4.3783169 0.63428378
3.195883 -4.345644 0.6370163
3.1886282 -4.3181586 0.63095224
4.1123323 -4.2090311 0.63159943
3.0255191 -4.1922164 0.63013005
4.0544157 -4.161881 0.63414669
3.3355277 -4.1046438 0.63718009
3.9674058 -4.1060286 0.6390987
3.7529812 -4.0545697 0.63997746
-0.068064354 -4.0279098 0.63919961
3.6397686 -4.018394 0.639171
3.9693346 -4.0181746 0.63462675
3.6210752 -3.9930878 0.63914597
0.09994553 -3.9630911 0.63908052
3.632345 -3.9676821 0.63110375
-0.14167035 -3.9150839 0.63439238
-0.30716151 -3.9048791 0.63380075
0.34607908 -3.845381 0.6385287
-0.19208443 -3.6224058 0.63067484
-5.3573437 -2.4317675 0.63917184
-4.8434625 -2.4248586 0.63665557
-5.1741538 -2.4077654 0.63467532
-4.8537598 -2.403631 0.63181174
-5.117969 -2.3934965 0.63785028
-4.6049318 -2.3720744 0.63233423
-5.3728347 -2.3615804 0.63902068
-4.8850722 -2.3620131 0.63875222
-4.634831 -2.2613966 0.63862324
5.9185014 -2.1709664 0.63907874
-4.7020659 -2.0792062 0.63509822
-5.4680734 -2.0623255 0.63993573
6.2164559 -2.0219519 0.63348997
5.6326966 -1.9859442 0.63930655
6.2043223 -1.9597162 0.63527179
5.6915779 -1.9486966 0.63853621
6.1421604 -1.9101434 0.63685882
-4.5690918 -1.8784419 0.63394451
5.5722723 -1.8743112 0.6348033
5.8732848 -1.7803059 0.63928103
6.1768389 -1.7847996 0.63281816
6.207458 -1.768929 0.6305334
6.2430744 -1.7473528 0.63927698
5.7426844 -1.7343631 0.63435328
-5.2670841 -1.6329587 0.6366086
-5.3898606 -1.5897005 0.6312077
-5.1817994 -1.5141616 0.63300467
-4.5241609 -1.5187311 0.63956428
-5.1716666 -1.468248 0.63839185
-4.8339167 -1.4602537 0.63787735
-5.3456445 -1.4582434 0.6378727
-4.7329884 -1.4486731 0.63181341
-5.0003767 -1.4077919 0.63700187
-4.9089074 -1.4040861 0.63872099
-4.8933396 -1.3905749 0.63670576
-0.15101057 -0.91871297 0.63975143
0.017274022 -0.91421825 0.63824391
0.076127887 -0.90934628 0.63802385
-0.24086308 -0.87464821 0.63941669
-0.41249517 -0.8660382 0.63876724
0.1873126 -0.83474976 0.63136744
-0.43164894 -0.79216778 0.63156337
0.43243229 -0.79228014 0.63372666
0.63891965 -0.78022665 0.63915008
0.61959791 -0.7630046 0.63734019
0.40545094 -0.75610137 0.63072228
0.45739722 -0.73328716 0.63801503
-0.62977487 -0.68970823 0.63263369
0.63381529 -0.57450539 0.63257313
0.86683941 -0.55155545 0.63610005
0.88655353 -0.5530687 0.63173085
-0.61819494 -0.52039886 0.63453561
0.94451916 -0.5109182 0.6397596
-0.87020218 -0.49084777 0.63837743
1.1009765 -0.38968158 0.63370866
-0.96755958 -0.36087576 0.6322794
1.0648973 -0.33594108 0.63155901
0.81701249 -0.12993038 0.6318481
-0.86502194 -0.051500976 0.63119864
1.1511807 0.090793878 0.63272965
-0.9057278 0.14807677 0.63670236
-0.85431504 0.15749809 0.63382626
-0.94741714 0.30683449 0.63734329
1.0978452 0.33546627 0.63555098
0.96720845 0.38294452 0.63706172
0.94759983 0.41519591 0.63904071
0.86286384 0.54665506 0.63809848
-0.91285872 0.55204117 0.63498807
-0.75534153 0.64370131 0.63563913
0.90362787 0.68226802 0.63918424
0.85153669 0.78781646 0.63589954
0.56399524 0.87364602 0.63386148
-0.4462232 0.92540199 0.63920641
0.5081504 0.92748916 0.63306165
0.43663055 1.0496212 0.6325925
0.091182619 1.0573366 0.63353789
-0.20094 1.0693942 0.63331985
-5.2793112 1.8944104 0.63182735
-5.2044411 1.8910778 0.63416719
-5.0647345 1.9125953 0.63380599
-5.2403274 2.0724447 0.63152289
-5.3637295 2.141412 0.63836515
-4.8838091 2.1647053 0.63768959
-5.1296778 2.1982703 0.63284969
-4.783462 2.3427782 0.63636577
3.6960459 3.1875613 0.63771486
3.7218323 3.2219603 0.63124108
3.9007297 3.2352338 0.6347034
4.2031255 3.2365291 0.63722265
4.0424929 3.2435513 0.63829708
3.648581 3.2879994 0.63706839
4.1766753 3.2883029 0.63750076
3.8791034 3.3166263 0.63521117
4.5437245 3.3682613 0.63019389
3.5738308 3.3770955 0.63043046
4.2784691 3.4659901 0.63033617
3.6770086 3.4751184 0.63899994
4.4031448 3.4894829 0.63683867
3.6200123 3.5225093 0.63306904
4.5502019 3.5340779 0.63536572
3.337173 3.6322007 0.63260412
-2.0272987 3.6497355 0.63847196
-1.53088 3.6557009 0.63837504
-2.1207132 3.7169652 0.6358031
-2.4008224 3.7463753 0.63295436
-2.2474866 3.7467656 0.63569808
-1.5296185 3.75875 0.63916111
-1.6429784 3.7658746 0.63844895
3.6608958 3.7705252 0.63244116
-2.4688735 3.7887115 0.63641906
-2.4030094 3.8099794 0.63868761
4.3864455 3.8690991 0.63841748
-1.5832158 3.8816309 0.63019872
-2.6661739 3.9570487 0.63585353
4.4210329 3.9605641 0.63889867
4.4152303 3.9905601 0.63705838
4.2430992 4.0090971 0.63236189
-1.4557763 4.0673008 0.63586026
-1.6097753 4.0904884 0.63264394
3.7316661 4.0953994 0.63303566
4.3848228 4.0943317 0.63673782
-2.4384775 4.1191826 0.63230145
-1.3702905 4.1116281 0.63636649
3.802181 4.1130114 0.63959181
4.180995 4.1187139 0.63097167
-2.3880181 4.1499748 0.63755393
4.0930567 4.1563892 0.63611948
4.0265503 4.1619825 0.63916242
4.0741272 4.1644993 0.63394594
-2.6158652 4.2242651 0.63189328
-2.411541 4.272614 0.6311388
-1.4841696 4.2964067 0.63293195
-2.3924773 4.4125519 0.63589716
-1.7048846 4.4314952 0.63947988
-2.3444097 4.458849 0.63840699
-2.1725576 4.5178394 0.63946223
-2.2034497 4.5268297 0.63727456
-1.9483125 4.5207191 0.63490629
-2.1524241 4.541122 0.63979387
-2.2436142 4.574347 0.63044131
-1.8414497 4.5955572 0.63856721
-2.1308746 4.601593 0.63004243
-1.9520273 4.6045341 0.6369071
-5.0816565 5.8016491 0.63394177
1.9827782 5.8588595 0.6328758
2.0422316 5.8827882 0.63866556
2.299 5.8835216 0.63532853
1.9141967 5.8967338 0.63873577
2.0697737 5.9159565 0.63461304
-5.0800314 5.933856 0.63509297
1.9364302 5.9779625 0.63351595
-5.2241549 5.9837093 0.63618279
1.8592783 6.0394692 0.63103712
1.8166599 6.0812559 0.63080931
2.3409798 6.129467 0.63813305
-5.0644779 6.160706 0.63968587
-5.2880025 6.1725574 0.63707328
-5.1560602 6.1761746 0.63133001
-5.2809691 6.2554016 0.63259876
-5.2451448 6.2544537 0.63346303
1.8901536 6.2862759 0.63258982
-5.0572305 6.3111696 0.63375831
2.057714 6.3333774 0.63393867
-5.0710001 6.3642054 0.63079917
7.1037135 6.886622 0.639189
7.1857305 6.9481015 0.63460505
6.8829784 7.0674057 0.63038945
7.1637216 7.0981975 0.63702595
6.6281042 7.1275001 0.63473332
7.186748 7.1703725 0.63030672
6.6767941 7.2095671 0.63441479
6.9330244 7.2893348 0.63399792
6.9790654 7.3117528 0.63307428
0.90239847 -7.0194349 0.64312816
1.0818741 -6.9683175 0.64872134
0.73139095 -6.9533901 0.64247537
0.9412595 -6.9548078 0.64813554
1.2512732 -6.8154697 0.64430332
0.86663687 -6.7851038 0.64402485
-6.9844475 -6.7668691 0.64564145
-6.7867374 -6.7313733 0.64660358
-7.0540304 -6.7230835 0.64863586
-6.950604 -6.7138057 0.64009511
-7.0059338 -6.6983566 0.64337373
-6.5219722 -6.6884384 0.64753687
-6.4831581 -6.6784892 0.64120233
-7.0075693 -6.66505 0.64470994
-7.0686927 -6.6428971 0.64847922
-7.0234923 -6.6041455 0.64636409
1.2987473 -6.553421 0.64372349
0.86663687 -6.5464039 0.64402485
0.97683978 -6.5182872 0.64092219
0.73929924 -6.454536 0.64612317
1.2436363 -6.456912 0.64932168
1.083864 -6.4218078 0.64891541
-6.6340761 -6.4168124 0.64472735
-7.0516024 -6.3696918 0.64589322
-7.0775576 -6.3195367 0.64864302
-6.8962688 -6.2921038 0.64885807
-6.925725 -6.2816715 0.6492337
-6.6932793 -6.2839613 0.6441834
-6.6465406 -6.2333179 0.6404767
-2.1308746 -6.2176342 0.64912117
-1.9146746 -6.1381063 0.64219844
-2.295022 -6.1246853 0.64708996
-2.2664046 -6.1208868 0.64037824
-2.2179732 -6.1237168 0.64033484
-1.8735857 -6.0089188 0.64992476
-2.1871076 -5.973196 0.64694548
-1.8612307 -5.9525461 0.64176369
-2.1432536 -5.7869 0.64352262
-1.9978844 -5.7224822 0.64121985
-2.1625144 -5.7097149 0.6410619
-1.8304731 -5.7056727 0.64178014
-2.1002626 -5.6535783 0.64146483
-1.9947755 -5.6257181 0.6451571
3.6040139 -5.0049 0.6499666
3.9258208 -4.9847841 0.6475811
3.578963 -4.9766636 0.64146233
3.816005 -4.97963 0.64555848
3.1706741 -4.9610901 0.64179993
3.5133202 -4.9683099 0.64758384
3.2128026 -4.9169602 0.64575863
3.2327325 -4.8996239 0.64868796
3.2920365 -4.8840857 0.64054716
3.2347193 -4.8719387 0.64343059
3.0763626 -4.8133574 0.6464808
3.9310734 -4.8165746 0.6456989
4.123951 -4.7913771 0.64592862
4.1866369 -4.7920609 0.64948058
3.2858007 -4.516077 0.64801085
3.2437987 -4.4804597 0.64631701
4.0874867 -4.4217019 0.64956862
4.2403402 -4.4104066 0.6410538
4.0785003 -4.3612337 0.6456297
4.1266341 -4.2640419 0.64216709
-0.02808094 -4.1614361 0.64352906
-0.15814358 -4.1481977 0.64469111
3.4854507 -4.1300526 0.64017868
0.15480411 -4.0912685 0.64835334
-0.27328163 -4.0833263 0.64069629
-0.095309913 -4.0440588 0.64263105
3.9976993 -4.0432067 0.64804721
0.37390533 -4.0374613 0.64885437
3.4351523 -4.0223684 0.64320624
3.5359674 -4.0229082 0.64082813
3.5452387 -4.010169 0.64474165
3.3854449 -3.9820409 0.64439809
3.8046567 -3.9742191 0.64874268
-0.40607667 -3.9130006 0.64626467
0.15068638 -3.8492303 0.64630079
-5.0740037 -2.4109833 0.64223933
-5.2529583 -2.3907785 0.64736044
-5.2291875 -2.3691437 0.64474368
-5.1774621 -2.3469937 0.64575422
-4.8236866 -2.3121157 0.64469254
-4.8757572 -2.2782178 0.64806128
5.9879475 -2.2054729 0.64137363
6.0678225 -2.1437113 0.64961046
6.1578569 -2.1383362 0.64569068
5.7343311 -2.0950356 0.64312005
5.9718652 -2.0762436 0.6475234
6.2855182 -2.0038733 0.64767051
-4.5347252 -1.9928901 0.64206004
6.244566 -1.9478458 0.6421926
6.2858586 -1.9155406 0.64698792
5.6583996 -1.889199 0.64514053
5.8851738 -1.8772166 0.64851415
6.2131553 -1.7655531 0.6406312
-4.3870616 -1.754647 0.6444416
6.1143489 -1.7427222 0.64281833
5.6292291 -1.7164643 0.64364076
5.984479 -1.7016139 0.6407727
6.0758696 -1.7085466 0.64460003
5.9703283 -1.6745188 0.64051473
-4.7852278 -1.6624386 0.64647233
5.9644251 -1.6678112 0.64443004
-4.7664237 -1.6320941 0.64884698
-5.2716179 -1.5708536 0.64150399
-5.1961741 -1.5556965 0.64860469
-5.1600852 -1.5516783 0.64262086
-5.3701534 -1.5113432 0.64578712
-5.2048163 -1.4730319 0.64831328
-5.365768 -1.4342316 0.64121819
-5.2917585 -1.4043429 0.64886045
-0.2169466 -0.92139059 0.64633656
0.049708545 -0.92426777 0.6444335
0.35544685 -0.9196384 0.648139
0.37574735 -0.85043621 0.6486485
-0.23330203 -0.84214485 0.6467011
-0.56955087 -0.822267 0.64726031
-0.29422861 -0.78476238 0.6444577
0.610578 -0.78157735 0.64961118
0.82789636 -0.73542547 0.64190698
0.87702465 -0.5676049 0.64771241
-0.96537399 -0.54695845 0.64959311
0.82271564 -0.53345948 0.6451391
0.82397997 -0.34264123 0.64640141
-0.96791548 -0.33689773 0.64577651
-0.78729242 -0.20782906 0.64629978
-1.0822325 -0.1515379 0.64239991
0.84038508 -0.11769177 0.64433932
1.0897143 -0.11690548 0.6433239
1.0520624 0.012709171 0.64978927
1.0918427 0.14067686 0.64128816
1.050272 0.25041148 0.64788824
-0.85865855 0.27549455 0.64032257
0.81179357 0.39455774 0.64247465
-0.98825181 0.45834896 0.64863372
0.8429054 0.45589009 0.64331126
-1.0118144 0.54258192 0.64551127
-0.96638954 0.60474068 0.6447258
-0.65875256 0.71168274 0.64671654
-0.61061931 0.74554634 0.64396346
0.87361181 0.76655453 0.64722133
-0.5180518 0.84740531 0.64260292
0.56591439 0.91003537 0.64019263
0.61230713 0.91825485 0.64913511
0.31383544 0.9375453 0.64643502
-0.40249169 0.97829354 0.64589226
0.031367838 1.0921121 0.64769948
0.15583393 1.1064203 0.64730561
-4.9935627 1.882154 0.64582205
-5.1168766 1.9643121 0.64235961
-5.0837879 1.9935627 0.64417195
-4.7551928 2.1045771 0.64696229
-5.1332517 2.153374 0.64360875
-5.0048122 2.3871217 0.64928782
-4.9192586 2.3925693 0.64152455
4.0737286 3.2254674 0.64524972
4.1953592 3.229749 0.64352167
4.2295299 3.2346482 0.64637756
3.6256294 3.2444372 0.64361608
4.2020602 3.2759023 0.64101458
4.362823 3.3694224 0.6446774
4.415349 3.4191856 0.64595985
4.5540795 3.4333105 0.64864296
3.427093 3.4451337 0.64141691
-2.2631404 3.5783677 0.64093208
-2.2898383 3.6509061 0.64112127
3.3261993 3.6531992 0.6411345
4.4110627 3.6709957 0.64787972
-2.1557164 3.6981308 0.64091706
-2.2259982 3.7018461 0.6466856
3.635438 3.7866375 0.64687324
3.6141112 3.8279977 0.64208579
4.5507641 3.8212371 0.64521694
-2.4739156 3.868567 0.64077032
3.49739 3.8879402 0.64889359
4.5322671 3.9275615 0.64731812
-2.5432787 3.9360662 0.64285266
-1.6486531 3.9435122 0.64615893
-2.4793041 4.0044537 0.64842796
4.436131 4.0149608 0.64804816
4.3152981 4.0259986 0.64728183
-2.3799241 4.0447755 0.64031351
-2.3937366 4.1632481 0.6466648
3.7092307 4.1669478 0.64918005
4.2278008 4.1677022 0.64067626
4.0649557 4.1794224 0.64447582
4.2387891 4.1887994 0.64905137
3.9621501 4.194654 0.64219964
-2.5362072 4.2513862 0.64979458
-1.4838134 4.3168306 0.64293534
-1.7670989 4.3560505 0.64421797
-2.0376744 4.5665779 0.64377868
-4.7303324 5.846735 0.6457231
1.877569 5.8810797 0.64385462
-5.0680056 5.8998022 0.64889812
1.8488929 5.8935766 0.64526081
2.1767502 5.9139247 0.64462936
-5.0142903 5.9524345 0.64838386
-4.961329 5.9784894 0.64480031
-4.8241482 5.9777789 0.64467669
2.2981491 5.9827213 0.64551318
2.4230666 6.0239282 0.64688706
-5.1352758 6.0342479 0.64601827
-5.2810907 6.0458469 0.64883745
2.1896274 6.0539379 0.64739716
-4.9138851 6.0744252 0.64047861
1.671773 6.1025033 0.64671016
-5.1356144 6.1708827 0.64309335
-4.6919618 6.172348 0.64026451
-4.8681602 6.1894388 0.64049649
1.92992 6.1990566 0.64454567
1.9648136 6.1903038 0.64115703
-4.8602839 6.2495737 0.64410317
-4.7658181 6.2429957 0.64660907
2.1437495 6.2493682 0.64409292
2.1519608 6.254107 0.64233065
2.0156667 6.267107 0.64660162
1.893231 6.2933674 0.64903343
1.9599464 6.2995472 0.64145279
2.0175259 6.3299274 0.64035976
-5.2110796 6.3352566 0.64095426
2.1210313 6.366745 0.64620763
7.220191 6.8609052 0.64019626
7.1876092 6.8796926 0.64879858
7.2028823 6.9340253 0.64512348
6.7924948 6.9522648 0.64364052
6.5018806 6.972847 0.64936471
7.1076975 6.9723978 0.64248919
7.0998378 7.0136275 0.64386272
6.6448908 7.088428 0.64119601
6.8787508 7.0965528 0.64419085
6.7612758 7.1400909 0.64867449
6.8207469 7.1438007 0.6431694
7.1750751 7.2398119 0.64630461
7.1714706 7.2546458 0.64515996
7.1186352 7.3019638 0.6404202
7.0543456 7.3234015 0.64102745
7.1894455 7.3252501 0.64905339
1.1712334 -6.981288 0.65169632
1.1930323 -6.9801636 0.65699154
1.0870057 -6.9548402 0.6547991
0.97184861 -6.9388251 0.65254319
1.3089566 -6.8619151 0.65024817
-6.7553401 -6.7775908 0.6549567
0.90785438 -6.7763238 0.65144145
-7.0586505 -6.7644625 0.65718913
-6.5142412 -6.7076602 0.65774286
-7.1368589 -6.6570377 0.65565109
1.1789106 -6.6431684 0.65694714
-6.3859763 -6.5820789 0.65671611
-6.957583 -6.5512624 0.65529263
-6.5753508 -6.5484896 0.65082252
-6.4490547 -6.4917684 0.6515559
-6.5459485 -6.4634023 0.65019619
0.79035425 -6.4549732 0.6545012
-7.1182523 -6.4428105 0.65605664
-6.9392271 -6.4429255 0.65740013
0.7438665 -6.4452825 0.65403521
-7.0403953 -6.4394865 0.65801334
0.9196924 -6.4136882 0.65492427
-6.3978 -6.3846321 0.65116256
-6.6517959 -6.2406559 0.6507169
-2.0627134 -6.1937437 0.65968919
-1.8445375 -6.1709671 0.6557126
-2.3753886 -6.0366201 0.65192747
-2.2041118 -6.0208325 0.65382814
-2.1356926 -5.9945354 0.65002251
-2.2358942 -5.7947526 0.6551435
-2.1759222 -5.7582326 0.65016496
-2.2774138 -5.7235994 0.65117753
-2.0383184 -5.7222533 0.65974438
-1.6524577 -5.6906047 0.65799034
-2.3317082 -5.6825409 0.65428734
-1.9060166 -5.688633 0.65448713
-2.1317182 -5.6664109 0.65800512
-1.9037807 -5.6403642 0.65901244
3.6866705 -5.0646725 0.65557808
3.5859938 -5.0005217 0.65203702
3.8280454 -4.9908838 0.65697932
3.4914339 -4.9812679 0.65093112
3.4897542 -4.9775009 0.6547761
3.6120379 -4.9638782 0.65551376
3.0582352 -4.796052 0.65718246
4.0560904 -4.6765175 0.65487766
4.0194845 -4.6363363 0.65722001
3.0130444 -4.6019478 0.65136957
4.098094 -4.5772142 0.65162277
3.0061517 -4.3250923 0.65515912
3.8349719 -4.2943921 0.65967333
4.1285648 -4.2839622 0.65920293
3.9133241 -4.2740269 0.65060592
3.0033298 -4.2272406 0.65262973
0.0076119602 -4.207531 0.65923595
3.9529088 -4.1954141 0.65010643
3.8041129 -4.1747279 0.65030169
3.8363032 -4.1031246 0.65440458
3.3321829 -4.0849295 0.65023255
-0.26054162 -4.048532 0.65663588
3.4206672 -4.0457387 0.65316725
3.7958555 -4.033751 0.65819442
3.8279581 -4.0385489 0.65167081
3.4255621 -4.0197659 0.65849751
-0.34473705 -3.9210937 0.65197074
-0.30493808 -3.8300643 0.65353751
-0.1209133 -3.682234 0.65407181
-0.018005639 -3.6738465 0.65890586
-0.1464799 -3.615977 0.65849459
-4.9829116 -2.4416513 0.65904456
-5.1526313 -2.4206791 0.65637851
-5.5310621 -2.3238168 0.65740061
-5.2127299 -2.3255992 0.65681624
-5.4371533 -2.3060341 0.65472054
-5.4012947 -2.3030126 0.65821075
-5.3425021 -2.3009765 0.65705562
-5.3933382 -2.2748473 0.65984499
5.848527 -2.2498021 0.6543349
-4.682807 -2.1753712 0.65125179
5.6504526 -2.1520343 0.65028512
6.10531 -2.1397977 0.65289783
6.0826688 -2.0850689 0.65452886
-4.5846167 -2.0303545 0.65113997
-4.5908184 -2.0293961 0.65449357
-4.5311003 -2.0188217 0.65438807
-4.4355431 -1.9363692 0.65392947
6.1647348 -1.9049525 0.65238476
-5.5795555 -1.8654022 0.65984917
5.9695668 -1.8618348 0.65390003
-4.3709617 -1.8451729 0.65589321
-4.3281269 -1.8482127 0.65338993
6.042254 -1.8082056 0.65380633
-4.5103817 -1.7438886 0.65507352
6.0786757 -1.6887034 0.65098536
5.681601 -1.6772816 0.65013278
5.9383535 -1.6719816 0.65716755
6.07306 -1.6757402 0.65091932
6.2660413 -1.6618472 0.65323126
-5.4718561 -1.5031798 0.65578568
-4.8324051 -1.4986861 0.6573329
-4.6621623 -1.4764441 0.65004444
-5.333559 -1.4365716 0.65506792
-5.089633 -1.4340813 0.65272546
-5.0799103 -1.4326389 0.65052807
-5.0256152 -1.4241393 0.65859067
-4.7246428 -1.388664 0.6513713
0.34313616 -0.9124676 0.65496385
0.39063421 -0.88227487 0.6562202
0.32560164 -0.87161762 0.65083444
0.061652601 -0.86093891 0.65254664
0.10652876 -0.84462702 0.65354276
-0.55827177 -0.82399821 0.65495622
0.3653487 -0.77804017 0.65596485
0.70703888 -0.72585452 0.6500901
0.89289725 -0.58893836 0.65901387
1.0017529 -0.20877306 0.65824711
0.96474206 -0.16354311 0.65077865
-0.88570118 -0.076321691 0.65591544
1.0875862 -0.018342227 0.65414518
-1.1181363 0.09783864 0.65116882
0.97651559 0.092645168 0.65585041
1.1709244 0.14714885 0.65053475
1.0931693 0.21292749 0.65037364
-0.99617016 0.23228908 0.65912229
0.845155 0.36356148 0.65455306
-0.78197044 0.42027003 0.65888733
0.98051012 0.51079476 0.65453011
-0.74778831 0.55523717 0.65018439
-0.98005188 0.60249788 0.65582776
-0.99112225 0.63618279 0.65197587
0.83311051 0.81803703 0.65986735
0.83223599 0.84230101 0.65101707
-0.55096132 0.89002931 0.6545732
0.35546935 0.91352093 0.65822041
0.40340951 0.91679591 0.65084958
0.47843325 0.95579612 0.65275717
-0.60775071 0.96801996 0.65689325
0.28856295 1.0006751 0.65210116
0.2446965 1.0790331 0.65791678
0.3195318 1.070909 0.65332288
-5.0873747 1.838434 0.65362978
-4.8685718 1.8468826 0.65355921
-5.0924358 1.8649492 0.65210319
-5.345614 1.8775904 0.65367436
-5.0255194 1.9017011 0.65441561
-4.7491951 1.994809 0.65958285
-5.287715 2.0791645 0.65167069
-4.6118703 2.1350932 0.65322393
-5.164021 2.1407986 0.65366006
-4.6515408 2.152102 0.65869641
-4.6293192 2.1675034 0.65705323
-5.1557641 2.2216067 0.65754032
-4.9910212 2.262152 0.65293676
-4.9492388 2.3543954 0.65975952
4.0982666 3.1804557 0.65923965
4.0849729 3.2025974 0.65732336
3.9725635 3.2346146 0.65404403
4.4559317 3.2498486 0.65707326
3.7352257 3.2613878 0.65942395
3.9518664 3.2739792 0.6589126
4.361804 3.2939816 0.65313363
4.3950624 3.3044381 0.65698886
4.3729267 3.3134596 0.65835571
4.2464304 3.355808 0.65697038
4.4192991 3.3545957 0.65054047
3.6192493 3.474333 0.65871596
4.5355372 3.5404267 0.65068603
-1.8763384 3.5777173 0.65116847
-1.5833396 3.5825253 0.65649354
3.356246 3.586931 0.65220785
4.6343517 3.5905659 0.65600652
-2.1161022 3.6378827 0.65018213
-1.9272778 3.637394 0.65301418
-1.8401824 3.7113261 0.65476906
-1.5187912 3.7453008 0.65611541
3.5054352 3.751832 0.65023613
3.3478074 3.7758276 0.65995431
-1.5603784 3.8217673 0.65938151
4.5598254 3.8229764 0.6510855
3.5625038 3.8442447 0.65994203
-1.7379835 3.8599863 0.65327251
-1.6405365 3.8556523 0.65388072
-2.3686833 3.9307294 0.65500146
-2.3336065 3.9903522 0.65046144
4.3653388 4.028614 0.65813231
-1.4171799 4.0357208 0.65928155
4.3790812 4.1215019 0.65133435
3.9088285 4.1479983 0.65753096
3.8583922 4.1508079 0.65146005
-1.4849753 4.1672993 0.65108621
3.7873755 4.1649027 0.65113044
4.0227418 4.167551 0.65947151
-1.6259881 4.1991658 0.65747011
-2.4812603 4.2147603 0.65220308
-2.5108125 4.3031602 0.65478683
-1.6687939 4.3345795 0.65642941
-2.314553 4.3473654 0.6558429
-1.4976616 4.430099 0.65580529
-2.0086048 4.5414891 0.65780306
-1.9715683 4.5565505 0.65336937
-1.9445405 4.5730615 0.65674078
-1.8884071 4.5801969 0.65039694
-1.8867025 4.6034179 0.65893745
-5.1003675 5.8835082 0.65039754
-5.2617111 5.8956656 0.65229177
-5.1234698 5.9436693 0.65980303
1.7038891 5.9989824 0.65487289
-5.3730717 6.0306253 0.65577245
-5.3122745 6.0402651 0.6590538
-5.2203603 6.0489497 0.65810275
1.5754403 6.1142101 0.65934134
1.664109 6.1329784 0.65964735
-5.2571239 6.1469398 0.65325761
-5.229136 6.1793408 0.65328503
2.0913923 6.1885467 0.65760958
2.1099477 6.2071009 0.65207589
-4.9384975 6.2140412 0.65650773
-4.9768581 6.2232475 0.65154076
-4.8796811 6.229785 0.65689993
-4.6447034 6.237926 0.65113139
-5.2089415 6.2892628 0.65503526
-4.8457403 6.3018193 0.6557914
1.9524913 6.3008265 0.6519233
1.9938531 6.3050828 0.65538514
-5.1239214 6.349443 0.65678346
7.2693424 6.8268986 0.65385795
7.0037322 6.8410616 0.65083539
7.2761536 6.9527073 0.65743589
6.633357 6.9710803 0.65042758
7.3856583 6.9714875 0.65600199
7.0645404 7.0088701 0.65499163
6.8793511 7.135807 0.65486264
6.8040552 7.185029 0.65272391
6.6752882 7.1995134 0.6541841
6.9180508 7.202641 0.65785766
7.1923308 7.2407794 0.65501761
7.083178 7.2785578 0.65284747
7.1067429 7.2736049 0.65632725
7.182353 7.2704492 0.6513164
7.1923342 7.2823834 0.65065408
0.9587152 -6.922195 0.66729963
0.65388221 -6.914844 0.66708052
1.233336 -6.8912387 0.66791499
0.81048834 -6.8546424 0.66608453
-6.9473267 -6.8488607 0.66380095
1.2143323 -6.8260961 0.66074347
-6.7800775 -6.8038855 0.6615653
-6.7525973 -6.7933903 0.6610899
-6.9654207 -6.6532259 0.66524529
-6.431715 -6.6126766 0.66490984
1.2497485 -6.6197238 0.66539645
0.62439525 -6.5730577 0.66197062
1.1844212 -6.5747285 0.66884029
-6.6982689 -6.5458231 0.66564023
-7.0916443 -6.538074 0.66169894
-6.5823112 -6.5356331 0.66499126
0.92159015 -6.5279999 0.66577089
1.332279 -6.528471 0.66782665
-6.8981895 -6.5001235 0.66572845
0.69967544 -6.5011568 0.66264129
-6.9774132 -6.4889832 0.6609019
0.71446127 -6.4333477 0.66849136
0.84462649 -6.4316974 0.66405344
1.1669194 -6.4261918 0.66762775
-7.0846906 -6.3785419 0.66138172
-6.6451154 -6.3057413 0.66943526
-6.6304317 -6.2692547 0.66610575
-6.8355107 -6.2509708 0.66479969
-6.6557703 -6.2450476 0.66976017
-2.0265601 -6.153079 0.66654015
-2.2512136 -6.1259928 0.66909623
-2.183244 -6.0005112 0.66854435
-1.6329706 -5.9311891 0.66870904
-1.90439 -5.9092088 0.66163909
-1.818465 -5.8562818 0.6627537
-1.602445 -5.8339915 0.66732979
-2.1938283 -5.7987723 0.66313195
-2.0743778 -5.6637902 0.66399407
3.5444007 -5.0331421 0.66044962
3.8395917 -5.0372572 0.66896009
3.7438569 -5.0141654 0.66566539
3.6115344 -5.0073996 0.6613301
3.7099724 -5.002708 0.66828203
3.2903662 -4.9911485 0.66450143
3.1185288 -4.8632259 0.66373694
3.9551649 -4.7991567 0.66492748
3.2084174 -4.7159472 0.66365826
4.0394578 -4.7180939 0.66967404
2.935477 -4.6814337 0.66683221
2.9802687 -4.6723709 0.66014266
4.0367351 -4.6430192 0.66572642
4.1797018 -4.5577784 0.66561186
3.2426755 -4.5171447 0.66276646
3.2381227 -4.4878855 0.66416454
4.0354147 -4.3901272 0.66532636
3.098381 -4.2666645 0.66144967
4.0179758 -4.223845 0.66053152
4.1182308 -4.2294278 0.66911113
3.2002501 -4.1672096 0.66969466
3.9881065 -4.1430416 0.66835451
-0.0052096844 -4.136991 0.66764867
0.20100617 -4.1321459 0.6646508
3.7133472 -4.1055565 0.66959655
0.21880281 -4.0905995 0.66088498
4.0754995 -4.0670338 0.66314185
3.2508287 -4.0492096 0.66532743
3.4658616 -3.9901702 0.66223264
3.5732408 -3.9695325 0.66587818
0.31336689 -3.8959122 0.66007245
-0.12311208 -3.8795791 0.66098017
0.30347061 -3.7883666 0.66155922
0.32129425 -3.7292125 0.66852695
0.10707855 -3.7162921 0.66359699
-0.070692182 -3.6904709 0.66983885
-5.0619297 -2.4922457 0.66437709
-5.2810764 -2.4820766 0.66395593
-5.0366578 -2.4518771 0.66122866
-4.8602753 -2.4073644 0.66086125
-5.1550117 -2.3879039 0.6619904
-4.9288177 -2.3868716 0.66038954
-4.6316495 -2.365943 0.66216147
-5.4359684 -2.3206379 0.66617894
6.128643 -2.123858 0.6628691
-4.3920465 -2.0611088 0.66000116
5.8402591 -2.0463037 0.66662759
-4.6125112 -1.9946134 0.66716278
-4.3402452 -1.9447873 0.66941726
6.1589336 -1.9360684 0.66597688
-4.6939435 -1.8091395 0.6651901
-5.4815216 -1.7777338 0.66505218
-4.560339 -1.7628627 0.66494846
-4.5643406 -1.7526095 0.66235256
-5.6134357 -1.721786 0.66001737
5.9698687 -1.7120345 0.66379833
-4.6381607 -1.6985598 0.66437757
5.714169 -1.6708987 0.66170359
5.8893347 -1.6640744 0.66518855
5.7129111 -1.6578217 0.6660881
6.2672377 -1.6482651 0.66902721
5.9951558 -1.610312 0.66125607
-5.4657116 -1.6022704 0.668679
-5.0578094 -1.4006503 0.6600877
0.028996848 -0.946105 0.66185564
-0.1627413 -0.93145066 0.66552061
-0.52024329 -0.90657359 0.66728258
-0.55577666 -0.78970015 0.66520286
0.57701409 -0.78236336 0.66991431
-0.97038579 -0.49998063 0.66976857
0.91510469 -0.25663194 0.66704518
1.0692796 -0.090599924 0.66285497
-1.0780923 -0.078210115 0.66251159
-0.99323964 -0.033672035 0.663679
0.88844287 -0.012716249 0.6629585
-1.0353283 -0.0096291453 0.66917253
0.98309934 0.00036886334 0.66060001
1.0218073 0.079930663 0.66263348
1.0031379 0.083967626 0.66067433
-0.87817645 0.10020933 0.66337568
0.89293563 0.22941215 0.66888165
0.98400283 0.23621938 0.66259837
1.0636069 0.36084786 0.66827881
-0.87149256 0.38571617 0.66849172
0.8666054 0.39114797 0.66685963
-0.77895957 0.51987201 0.66170186
0.64155173 0.67794669 0.66034365
0.8640371 0.69110256 0.66934007
-0.60997677 0.77006042 0.66240007
-0.66340286 0.83216429 0.66870439
-0.55941916 0.93931031 0.66730547
-0.37265781 0.95654404 0.66013271
0.48446006 0.96407592 0.66622198
-0.49520978 0.97949123 0.66950917
0.10757471 0.99187398 0.66331244
0.26784202 1.0616612 0.6631192
-0.010935664 1.0780483 0.66496897
-0.12125212 1.0823344 0.662319
-4.7792625 1.8473607 0.66526961
-4.9022923 1.8679792 0.66916978
-4.7805524 1.8904741 0.66997957
-5.0443783 1.9099126 0.66961527
-4.9952435 1.9408307 0.66797698
-4.6004014 2.0300949 0.66161525
-5.4271784 2.0554788 0.66332448
-5.3215094 2.1493912 0.66685665
-4.8519917 2.2498198 0.66274405
-5.2911401 2.2595172 0.66438282
-4.9591799 2.3084195 0.66751999
-4.7718291 2.348531 0.66609585
3.7715797 3.1516979 0.66197443
4.3210483 3.2408984 0.66476512
3.5255475 3.2674191 0.66069293
3.4916618 3.2778299 0.66678834
4.585948 3.4404058 0.66839123
4.3306651 3.4900606 0.66052163
3.4791093 3.5190852 0.66877878
3.7023001 3.5240982 0.66780323
-2.0552816 3.5732148 0.66375053
3.6364005 3.5717587 0.66443777
3.5809631 3.5833898 0.66427863
-1.9047472 3.6106095 0.66910315
-1.6492682 3.671102 0.66398102
4.4578581 3.6949034 0.66620004
4.6107068 3.7143517 0.66488206
-2.2080257 3.7936211 0.66493225
-2.394949 3.8162656 0.66173244
-1.5528954 3.8353376 0.66037035
4.2911253 3.8648491 0.66783798
-1.5280817 3.8721764 0.66380179
3.4735017 3.912673 0.66662824
-1.6904004 3.937377 0.66844285
4.566165 3.9720654 0.663899
3.4518187 4.0066195 0.66089749
-2.4892688 4.0190735 0.66563761
-1.3645757 4.014204 0.66519481
-2.54196 4.0776944 0.66661906
4.2567058 4.1046896 0.66705739
4.3645835 4.1187496 0.66420746
4.2099104 4.1287417 0.66422343
4.2574368 4.127635 0.66335851
-2.5799665 4.1532207 0.66995442
3.8916819 4.1608653 0.66097975
-1.5379244 4.2143984 0.66367137
-2.4865541 4.2363954 0.66552615
-2.279053 4.2533703 0.66531992
-1.6221821 4.4010949 0.66222191
-2.2577133 4.4199324 0.66815162
-1.5465841 4.4199314 0.66131121
-2.3531651 4.4764957 0.66000164
-1.6648781 4.47715 0.66723728
-1.5909071 4.472621 0.66924727
-2.105799 4.5303664 0.66783452
-2.1530526 4.5604196 0.66666162
-2.048821 4.6093545 0.66837013
-5.0774174 5.8044338 0.66369224
-5.3371363 5.8836489 0.66369915
1.9361086 5.9222307 0.66739619
2.0141263 5.9203968 0.66224867
-4.6741104 5.9395113 0.66049767
-5.2549167 5.9648118 0.66347754
-5.1221495 5.9779725 0.66653168
1.7488673 5.9934869 0.66304898
2.2190571 6.0020256 0.66008496
1.608222 6.017365 0.66769075
1.872171 6.0173435 0.66670936
-4.8877816 6.0315976 0.66457653
2.2431369 6.0533047 0.66043085
-4.5491285 6.0749726 0.66874826
2.3672252 6.0889735 0.66170251
2.3091753 6.1418462 0.66556811
-5.2963672 6.1771903 0.66889632
-4.730176 6.1741214 0.66932023
1.9227004 6.1889262 0.66319597
2.2311709 6.2170978 0.66058719
-5.1174369 6.2247767 0.66234279
2.0574543 6.2258716 0.6600728
2.064271 6.2243357 0.66291726
1.6813767 6.2476883 0.66878688
1.9477121 6.2573471 0.66333854
1.797103 6.2790575 0.66681385
1.8837457 6.2790093 0.6600728
-5.018765 6.2912064 0.66861606
1.8281095 6.3006005 0.66286159
-5.1630759 6.351181 0.66739297
1.8803947 6.3518519 0.66137373
7.2929649 6.8431263 0.66115856
7.0348148 6.8636298 0.66427517
6.9975457 6.8814554 0.66517055
7.1152029 6.9262667 0.6681006
6.9729199 6.9547448 0.66867125
6.7029934 6.9607191 0.66083908
7.1844273 6.9993739 0.66568112
7.1919508 6.9954295 0.66457558
7.2639532 7.0005326 0.66028416
